ply
format ascii 1.0
element vertex 121
property float x
property float y
property float z
end_header
9.61654 2.95093 -40.58
9.61654 2.95093 -40.31
9.61654 2.95093 -40.04
9.61654 2.95093 -39.77
9.61654 2.95093 -39.5
9.61654 2.95093 -39.23
9.61654 2.95093 -38.96
9.61654 2.95093 -38.69
9.61654 2.95093 -38.42
9.61654 2.95093 -38.15
9.61654 2.95093 -37.88
9.65489 2.92766 -40.58
9.65489 2.92766 -40.31
9.65489 2.92766 -40.04
9.65489 2.92766 -39.77
9.65489 2.92766 -39.5
9.65489 2.92766 -39.23
9.65489 2.92766 -38.96
9.65489 2.92766 -38.69
9.65489 2.92766 -38.42
9.65489 2.92766 -38.15
9.65489 2.92766 -37.88
9.69323 2.90438 -40.58
9.69323 2.90438 -40.31
9.69323 2.90438 -40.04
9.69323 2.90438 -39.77
9.69323 2.90438 -39.5
9.69323 2.90438 -39.23
9.69323 2.90438 -38.96
9.69323 2.90438 -38.69
9.69323 2.90438 -38.42
9.69323 2.90438 -38.15
9.69323 2.90438 -37.88
9.73158 2.88111 -40.58
9.73158 2.88111 -40.31
9.73158 2.88111 -40.04
9.73158 2.88111 -39.77
9.73158 2.88111 -39.5
9.73158 2.88111 -39.23
9.73158 2.88111 -38.96
9.73158 2.88111 -38.69
9.73158 2.88111 -38.42
9.73158 2.88111 -38.15
9.73158 2.88111 -37.88
9.76992 2.85783 -40.58
9.76992 2.85783 -40.31
9.76992 2.85783 -40.04
9.76992 2.85783 -39.77
9.76992 2.85783 -39.5
9.76992 2.85783 -39.23
9.76992 2.85783 -38.96
9.76992 2.85783 -38.69
9.76992 2.85783 -38.42
9.76992 2.85783 -38.15
9.76992 2.85783 -37.88
9.80827 2.83456 -40.58
9.80827 2.83456 -40.31
9.80827 2.83456 -40.04
9.80827 2.83456 -39.77
9.80827 2.83456 -39.5
9.80827 2.83456 -39.23
9.80827 2.83456 -38.96
9.80827 2.83456 -38.69
9.80827 2.83456 -38.42
9.80827 2.83456 -38.15
9.80827 2.83456 -37.88
9.84662 2.81128 -40.58
9.84662 2.81128 -40.31
9.84662 2.81128 -40.04
9.84662 2.81128 -39.77
9.84662 2.81128 -39.5
9.84662 2.81128 -39.23
9.84662 2.81128 -38.96
9.84662 2.81128 -38.69
9.84662 2.81128 -38.42
9.84662 2.81128 -38.15
9.84662 2.81128 -37.88
9.88496 2.78801 -40.58
9.88496 2.78801 -40.31
9.88496 2.78801 -40.04
9.88496 2.78801 -39.77
9.88496 2.78801 -39.5
9.88496 2.78801 -39.23
9.88496 2.78801 -38.96
9.88496 2.78801 -38.69
9.88496 2.78801 -38.42
9.88496 2.78801 -38.15
9.88496 2.78801 -37.88
9.92331 2.76473 -40.58
9.92331 2.76473 -40.31
9.92331 2.76473 -40.04
9.92331 2.76473 -39.77
9.92331 2.76473 -39.5
9.92331 2.76473 -39.23
9.92331 2.76473 -38.96
9.92331 2.76473 -38.69
9.92331 2.76473 -38.42
9.92331 2.76473 -38.15
9.92331 2.76473 -37.88
9.96165 2.74146 -40.58
9.96165 2.74146 -40.31
9.96165 2.74146 -40.04
9.96165 2.74146 -39.77
9.96165 2.74146 -39.5
9.96165 2.74146 -39.23
9.96165 2.74146 -38.96
9.96165 2.74146 -38.69
9.96165 2.74146 -38.42
9.96165 2.74146 -38.15
9.96165 2.74146 -37.88
10 2.71818 -40.58
10 2.71818 -40.31
10 2.71818 -40.04
10 2.71818 -39.77
10 2.71818 -39.5
10 2.71818 -39.23
10 2.71818 -38.96
10 2.71818 -38.69
10 2.71818 -38.42
10 2.71818 -38.15
10 2.71818 -37.88
