ply
format ascii 1.0
element vertex 961
property float x
property float y
property float z
property uchar red
property uchar green
property uchar blue
end_header
6.17176 1.85773e-12 -41.88 255 0 0
6.17176 1.85773e-12 -41.7467 255 0 0
6.17176 1.85773e-12 -41.6133 255 0 0
6.17176 1.85773e-12 -41.48 255 0 0
6.17176 1.85773e-12 -41.3467 255 0 0
6.17176 1.85773e-12 -41.2133 255 0 0
6.17176 1.85773e-12 -41.08 255 0 0
6.17176 1.85773e-12 -40.9467 255 0 0
6.17176 1.85773e-12 -40.8133 255 0 0
6.17176 1.85773e-12 -40.68 255 0 0
6.17176 1.85773e-12 -40.5467 255 0 0
6.17176 1.85773e-12 -40.4133 255 0 0
6.17176 1.85773e-12 -40.28 255 0 0
6.17176 1.85773e-12 -40.1467 255 0 0
6.17176 1.85773e-12 -40.0133 255 0 0
6.17176 1.85773e-12 -39.88 0 255 0
6.17176 1.85773e-12 -39.7467 255 0 0
6.17176 1.85773e-12 -39.6133 255 0 0
6.17176 1.85773e-12 -39.48 255 0 0
6.17176 1.85773e-12 -39.3467 255 0 0
6.17176 1.85773e-12 -39.2133 255 0 0
6.17176 1.85773e-12 -39.08 255 0 0
6.17176 1.85773e-12 -38.9467 255 0 0
6.17176 1.85773e-12 -38.8133 255 0 0
6.17176 1.85773e-12 -38.68 255 0 0
6.17176 1.85773e-12 -38.5467 255 0 0
6.17176 1.85773e-12 -38.4133 255 0 0
6.17176 1.85773e-12 -38.28 255 0 0
6.17176 1.85773e-12 -38.1467 255 0 0
6.17176 1.85773e-12 -38.0133 255 0 0
6.17176 1.85773e-12 -37.88 255 0 0
6.25542 -0.795935 -41.88 255 0 0
6.25542 -0.795935 -41.7467 255 0 0
6.25542 -0.795935 -41.6133 255 0 0
6.25542 -0.795935 -41.48 255 0 0
6.25542 -0.795935 -41.3467 255 0 0
6.25542 -0.795935 -41.2133 255 0 0
6.25542 -0.795935 -41.08 255 0 0
6.25542 -0.795935 -40.9467 255 0 0
6.25542 -0.795935 -40.8133 255 0 0
6.25542 -0.795935 -40.68 255 0 0
6.25542 -0.795935 -40.5467 255 0 0
6.25542 -0.795935 -40.4133 255 0 0
6.25542 -0.795935 -40.28 255 0 0
6.25542 -0.795935 -40.1467 255 0 0
6.25542 -0.795935 -40.0133 255 0 0
6.25542 -0.795935 -39.88 0 255 0
6.25542 -0.795935 -39.7467 255 0 0
6.25542 -0.795935 -39.6133 255 0 0
6.25542 -0.795935 -39.48 255 0 0
6.25542 -0.795935 -39.3467 255 0 0
6.25542 -0.795935 -39.2133 255 0 0
6.25542 -0.795935 -39.08 255 0 0
6.25542 -0.795935 -38.9467 255 0 0
6.25542 -0.795935 -38.8133 255 0 0
6.25542 -0.795935 -38.68 255 0 0
6.25542 -0.795935 -38.5467 255 0 0
6.25542 -0.795935 -38.4133 255 0 0
6.25542 -0.795935 -38.28 255 0 0
6.25542 -0.795935 -38.1467 255 0 0
6.25542 -0.795935 -38.0133 255 0 0
6.25542 -0.795935 -37.88 255 0 0
6.50273 -1.55708 -41.88 255 0 0
6.50273 -1.55708 -41.7467 255 0 0
6.50273 -1.55708 -41.6133 255 0 0
6.50273 -1.55708 -41.48 255 0 0
6.50273 -1.55708 -41.3467 255 0 0
6.50273 -1.55708 -41.2133 255 0 0
6.50273 -1.55708 -41.08 255 0 0
6.50273 -1.55708 -40.9467 255 0 0
6.50273 -1.55708 -40.8133 255 0 0
6.50273 -1.55708 -40.68 255 0 0
6.50273 -1.55708 -40.5467 255 0 0
6.50273 -1.55708 -40.4133 255 0 0
6.50273 -1.55708 -40.28 255 0 0
6.50273 -1.55708 -40.1467 255 0 0
6.50273 -1.55708 -40.0133 255 0 0
6.50273 -1.55708 -39.88 0 255 0
6.50273 -1.55708 -39.7467 255 0 0
6.50273 -1.55708 -39.6133 255 0 0
6.50273 -1.55708 -39.48 255 0 0
6.50273 -1.55708 -39.3467 255 0 0
6.50273 -1.55708 -39.2133 255 0 0
6.50273 -1.55708 -39.08 255 0 0
6.50273 -1.55708 -38.9467 255 0 0
6.50273 -1.55708 -38.8133 255 0 0
6.50273 -1.55708 -38.68 255 0 0
6.50273 -1.55708 -38.5467 255 0 0
6.50273 -1.55708 -38.4133 255 0 0
6.50273 -1.55708 -38.28 255 0 0
6.50273 -1.55708 -38.1467 255 0 0
6.50273 -1.55708 -38.0133 255 0 0
6.50273 -1.55708 -37.88 255 0 0
6.90289 -2.25018 -41.88 255 0 0
6.90289 -2.25018 -41.7467 255 0 0
6.90289 -2.25018 -41.6133 255 0 0
6.90289 -2.25018 -41.48 255 0 0
6.90289 -2.25018 -41.3467 255 0 0
6.90289 -2.25018 -41.2133 255 0 0
6.90289 -2.25018 -41.08 255 0 0
6.90289 -2.25018 -40.9467 255 0 0
6.90289 -2.25018 -40.8133 255 0 0
6.90289 -2.25018 -40.68 255 0 0
6.90289 -2.25018 -40.5467 255 0 0
6.90289 -2.25018 -40.4133 255 0 0
6.90289 -2.25018 -40.28 255 0 0
6.90289 -2.25018 -40.1467 255 0 0
6.90289 -2.25018 -40.0133 255 0 0
6.90289 -2.25018 -39.88 0 255 0
6.90289 -2.25018 -39.7467 255 0 0
6.90289 -2.25018 -39.6133 255 0 0
6.90289 -2.25018 -39.48 255 0 0
6.90289 -2.25018 -39.3467 255 0 0
6.90289 -2.25018 -39.2133 255 0 0
6.90289 -2.25018 -39.08 255 0 0
6.90289 -2.25018 -38.9467 255 0 0
6.90289 -2.25018 -38.8133 255 0 0
6.90289 -2.25018 -38.68 255 0 0
6.90289 -2.25018 -38.5467 255 0 0
6.90289 -2.25018 -38.4133 255 0 0
6.90289 -2.25018 -38.28 255 0 0
6.90289 -2.25018 -38.1467 255 0 0
6.90289 -2.25018 -38.0133 255 0 0
6.90289 -2.25018 -37.88 255 0 0
7.43841 -2.84494 -41.88 255 0 0
7.43841 -2.84494 -41.7467 255 0 0
7.43841 -2.84494 -41.6133 255 0 0
7.43841 -2.84494 -41.48 255 0 0
7.43841 -2.84494 -41.3467 255 0 0
7.43841 -2.84494 -41.2133 255 0 0
7.43841 -2.84494 -41.08 255 0 0
7.43841 -2.84494 -40.9467 255 0 0
7.43841 -2.84494 -40.8133 255 0 0
7.43841 -2.84494 -40.68 255 0 0
7.43841 -2.84494 -40.5467 255 0 0
7.43841 -2.84494 -40.4133 255 0 0
7.43841 -2.84494 -40.28 255 0 0
7.43841 -2.84494 -40.1467 255 0 0
7.43841 -2.84494 -40.0133 255 0 0
7.43841 -2.84494 -39.88 0 255 0
7.43841 -2.84494 -39.7467 255 0 0
7.43841 -2.84494 -39.6133 255 0 0
7.43841 -2.84494 -39.48 255 0 0
7.43841 -2.84494 -39.3467 255 0 0
7.43841 -2.84494 -39.2133 255 0 0
7.43841 -2.84494 -39.08 255 0 0
7.43841 -2.84494 -38.9467 255 0 0
7.43841 -2.84494 -38.8133 255 0 0
7.43841 -2.84494 -38.68 255 0 0
7.43841 -2.84494 -38.5467 255 0 0
7.43841 -2.84494 -38.4133 255 0 0
7.43841 -2.84494 -38.28 255 0 0
7.43841 -2.84494 -38.1467 255 0 0
7.43841 -2.84494 -38.0133 255 0 0
7.43841 -2.84494 -37.88 255 0 0
8.08588 -3.31535 -41.88 255 0 0
8.08588 -3.31535 -41.7467 255 0 0
8.08588 -3.31535 -41.6133 255 0 0
8.08588 -3.31535 -41.48 255 0 0
8.08588 -3.31535 -41.3467 255 0 0
8.08588 -3.31535 -41.2133 255 0 0
8.08588 -3.31535 -41.08 255 0 0
8.08588 -3.31535 -40.9467 255 0 0
8.08588 -3.31535 -40.8133 255 0 0
8.08588 -3.31535 -40.68 255 0 0
8.08588 -3.31535 -40.5467 255 0 0
8.08588 -3.31535 -40.4133 255 0 0
8.08588 -3.31535 -40.28 255 0 0
8.08588 -3.31535 -40.1467 255 0 0
8.08588 -3.31535 -40.0133 255 0 0
8.08588 -3.31535 -39.88 0 255 0
8.08588 -3.31535 -39.7467 255 0 0
8.08588 -3.31535 -39.6133 255 0 0
8.08588 -3.31535 -39.48 255 0 0
8.08588 -3.31535 -39.3467 255 0 0
8.08588 -3.31535 -39.2133 255 0 0
8.08588 -3.31535 -39.08 255 0 0
8.08588 -3.31535 -38.9467 255 0 0
8.08588 -3.31535 -38.8133 255 0 0
8.08588 -3.31535 -38.68 255 0 0
8.08588 -3.31535 -38.5467 255 0 0
8.08588 -3.31535 -38.4133 255 0 0
8.08588 -3.31535 -38.28 255 0 0
8.08588 -3.31535 -38.1467 255 0 0
8.08588 -3.31535 -38.0133 255 0 0
8.08588 -3.31535 -37.88 255 0 0
8.81701 -3.64087 -41.88 255 0 0
8.81701 -3.64087 -41.7467 255 0 0
8.81701 -3.64087 -41.6133 255 0 0
8.81701 -3.64087 -41.48 255 0 0
8.81701 -3.64087 -41.3467 255 0 0
8.81701 -3.64087 -41.2133 255 0 0
8.81701 -3.64087 -41.08 255 0 0
8.81701 -3.64087 -40.9467 255 0 0
8.81701 -3.64087 -40.8133 255 0 0
8.81701 -3.64087 -40.68 255 0 0
8.81701 -3.64087 -40.5467 255 0 0
8.81701 -3.64087 -40.4133 255 0 0
8.81701 -3.64087 -40.28 255 0 0
8.81701 -3.64087 -40.1467 255 0 0
8.81701 -3.64087 -40.0133 255 0 0
8.81701 -3.64087 -39.88 0 255 0
8.81701 -3.64087 -39.7467 255 0 0
8.81701 -3.64087 -39.6133 255 0 0
8.81701 -3.64087 -39.48 255 0 0
8.81701 -3.64087 -39.3467 255 0 0
8.81701 -3.64087 -39.2133 255 0 0
8.81701 -3.64087 -39.08 255 0 0
8.81701 -3.64087 -38.9467 255 0 0
8.81701 -3.64087 -38.8133 255 0 0
8.81701 -3.64087 -38.68 255 0 0
8.81701 -3.64087 -38.5467 255 0 0
8.81701 -3.64087 -38.4133 255 0 0
8.81701 -3.64087 -38.28 255 0 0
8.81701 -3.64087 -38.1467 255 0 0
8.81701 -3.64087 -38.0133 255 0 0
8.81701 -3.64087 -37.88 255 0 0
9.59984 -3.80727 -41.88 255 0 0
9.59984 -3.80727 -41.7467 255 0 0
9.59984 -3.80727 -41.6133 255 0 0
9.59984 -3.80727 -41.48 255 0 0
9.59984 -3.80727 -41.3467 255 0 0
9.59984 -3.80727 -41.2133 255 0 0
9.59984 -3.80727 -41.08 255 0 0
9.59984 -3.80727 -40.9467 255 0 0
9.59984 -3.80727 -40.8133 255 0 0
9.59984 -3.80727 -40.68 255 0 0
9.59984 -3.80727 -40.5467 255 0 0
9.59984 -3.80727 -40.4133 255 0 0
9.59984 -3.80727 -40.28 255 0 0
9.59984 -3.80727 -40.1467 255 0 0
9.59984 -3.80727 -40.0133 255 0 0
9.59984 -3.80727 -39.88 0 255 0
9.59984 -3.80727 -39.7467 255 0 0
9.59984 -3.80727 -39.6133 255 0 0
9.59984 -3.80727 -39.48 255 0 0
9.59984 -3.80727 -39.3467 255 0 0
9.59984 -3.80727 -39.2133 255 0 0
9.59984 -3.80727 -39.08 255 0 0
9.59984 -3.80727 -38.9467 255 0 0
9.59984 -3.80727 -38.8133 255 0 0
9.59984 -3.80727 -38.68 255 0 0
9.59984 -3.80727 -38.5467 255 0 0
9.59984 -3.80727 -38.4133 255 0 0
9.59984 -3.80727 -38.28 255 0 0
9.59984 -3.80727 -38.1467 255 0 0
9.59984 -3.80727 -38.0133 255 0 0
9.59984 -3.80727 -37.88 255 0 0
10.4002 -3.80727 -41.88 255 0 0
10.4002 -3.80727 -41.7467 255 0 0
10.4002 -3.80727 -41.6133 255 0 0
10.4002 -3.80727 -41.48 255 0 0
10.4002 -3.80727 -41.3467 255 0 0
10.4002 -3.80727 -41.2133 255 0 0
10.4002 -3.80727 -41.08 255 0 0
10.4002 -3.80727 -40.9467 255 0 0
10.4002 -3.80727 -40.8133 255 0 0
10.4002 -3.80727 -40.68 255 0 0
10.4002 -3.80727 -40.5467 255 0 0
10.4002 -3.80727 -40.4133 255 0 0
10.4002 -3.80727 -40.28 255 0 0
10.4002 -3.80727 -40.1467 255 0 0
10.4002 -3.80727 -40.0133 255 0 0
10.4002 -3.80727 -39.88 0 255 0
10.4002 -3.80727 -39.7467 255 0 0
10.4002 -3.80727 -39.6133 255 0 0
10.4002 -3.80727 -39.48 255 0 0
10.4002 -3.80727 -39.3467 255 0 0
10.4002 -3.80727 -39.2133 255 0 0
10.4002 -3.80727 -39.08 255 0 0
10.4002 -3.80727 -38.9467 255 0 0
10.4002 -3.80727 -38.8133 255 0 0
10.4002 -3.80727 -38.68 255 0 0
10.4002 -3.80727 -38.5467 255 0 0
10.4002 -3.80727 -38.4133 255 0 0
10.4002 -3.80727 -38.28 255 0 0
10.4002 -3.80727 -38.1467 255 0 0
10.4002 -3.80727 -38.0133 255 0 0
10.4002 -3.80727 -37.88 255 0 0
11.183 -3.64087 -41.88 255 0 0
11.183 -3.64087 -41.7467 255 0 0
11.183 -3.64087 -41.6133 255 0 0
11.183 -3.64087 -41.48 255 0 0
11.183 -3.64087 -41.3467 255 0 0
11.183 -3.64087 -41.2133 255 0 0
11.183 -3.64087 -41.08 255 0 0
11.183 -3.64087 -40.9467 255 0 0
11.183 -3.64087 -40.8133 255 0 0
11.183 -3.64087 -40.68 255 0 0
11.183 -3.64087 -40.5467 255 0 0
11.183 -3.64087 -40.4133 255 0 0
11.183 -3.64087 -40.28 255 0 0
11.183 -3.64087 -40.1467 255 0 0
11.183 -3.64087 -40.0133 255 0 0
11.183 -3.64087 -39.88 0 255 0
11.183 -3.64087 -39.7467 255 0 0
11.183 -3.64087 -39.6133 255 0 0
11.183 -3.64087 -39.48 255 0 0
11.183 -3.64087 -39.3467 255 0 0
11.183 -3.64087 -39.2133 255 0 0
11.183 -3.64087 -39.08 255 0 0
11.183 -3.64087 -38.9467 255 0 0
11.183 -3.64087 -38.8133 255 0 0
11.183 -3.64087 -38.68 255 0 0
11.183 -3.64087 -38.5467 255 0 0
11.183 -3.64087 -38.4133 255 0 0
11.183 -3.64087 -38.28 255 0 0
11.183 -3.64087 -38.1467 255 0 0
11.183 -3.64087 -38.0133 255 0 0
11.183 -3.64087 -37.88 255 0 0
11.9141 -3.31535 -41.88 255 0 0
11.9141 -3.31535 -41.7467 255 0 0
11.9141 -3.31535 -41.6133 255 0 0
11.9141 -3.31535 -41.48 255 0 0
11.9141 -3.31535 -41.3467 255 0 0
11.9141 -3.31535 -41.2133 255 0 0
11.9141 -3.31535 -41.08 255 0 0
11.9141 -3.31535 -40.9467 255 0 0
11.9141 -3.31535 -40.8133 255 0 0
11.9141 -3.31535 -40.68 255 0 0
11.9141 -3.31535 -40.5467 255 0 0
11.9141 -3.31535 -40.4133 255 0 0
11.9141 -3.31535 -40.28 255 0 0
11.9141 -3.31535 -40.1467 255 0 0
11.9141 -3.31535 -40.0133 255 0 0
11.9141 -3.31535 -39.88 0 255 0
11.9141 -3.31535 -39.7467 255 0 0
11.9141 -3.31535 -39.6133 255 0 0
11.9141 -3.31535 -39.48 255 0 0
11.9141 -3.31535 -39.3467 255 0 0
11.9141 -3.31535 -39.2133 255 0 0
11.9141 -3.31535 -39.08 255 0 0
11.9141 -3.31535 -38.9467 255 0 0
11.9141 -3.31535 -38.8133 255 0 0
11.9141 -3.31535 -38.68 255 0 0
11.9141 -3.31535 -38.5467 255 0 0
11.9141 -3.31535 -38.4133 255 0 0
11.9141 -3.31535 -38.28 255 0 0
11.9141 -3.31535 -38.1467 255 0 0
11.9141 -3.31535 -38.0133 255 0 0
11.9141 -3.31535 -37.88 255 0 0
12.5616 -2.84494 -41.88 255 0 0
12.5616 -2.84494 -41.7467 255 0 0
12.5616 -2.84494 -41.6133 255 0 0
12.5616 -2.84494 -41.48 255 0 0
12.5616 -2.84494 -41.3467 255 0 0
12.5616 -2.84494 -41.2133 255 0 0
12.5616 -2.84494 -41.08 255 0 0
12.5616 -2.84494 -40.9467 255 0 0
12.5616 -2.84494 -40.8133 255 0 0
12.5616 -2.84494 -40.68 255 0 0
12.5616 -2.84494 -40.5467 255 0 0
12.5616 -2.84494 -40.4133 255 0 0
12.5616 -2.84494 -40.28 255 0 0
12.5616 -2.84494 -40.1467 255 0 0
12.5616 -2.84494 -40.0133 255 0 0
12.5616 -2.84494 -39.88 0 255 0
12.5616 -2.84494 -39.7467 255 0 0
12.5616 -2.84494 -39.6133 255 0 0
12.5616 -2.84494 -39.48 255 0 0
12.5616 -2.84494 -39.3467 255 0 0
12.5616 -2.84494 -39.2133 255 0 0
12.5616 -2.84494 -39.08 255 0 0
12.5616 -2.84494 -38.9467 255 0 0
12.5616 -2.84494 -38.8133 255 0 0
12.5616 -2.84494 -38.68 255 0 0
12.5616 -2.84494 -38.5467 255 0 0
12.5616 -2.84494 -38.4133 255 0 0
12.5616 -2.84494 -38.28 255 0 0
12.5616 -2.84494 -38.1467 255 0 0
12.5616 -2.84494 -38.0133 255 0 0
12.5616 -2.84494 -37.88 255 0 0
13.0971 -2.25018 -41.88 255 0 0
13.0971 -2.25018 -41.7467 255 0 0
13.0971 -2.25018 -41.6133 255 0 0
13.0971 -2.25018 -41.48 255 0 0
13.0971 -2.25018 -41.3467 255 0 0
13.0971 -2.25018 -41.2133 255 0 0
13.0971 -2.25018 -41.08 255 0 0
13.0971 -2.25018 -40.9467 255 0 0
13.0971 -2.25018 -40.8133 255 0 0
13.0971 -2.25018 -40.68 255 0 0
13.0971 -2.25018 -40.5467 255 0 0
13.0971 -2.25018 -40.4133 255 0 0
13.0971 -2.25018 -40.28 255 0 0
13.0971 -2.25018 -40.1467 255 0 0
13.0971 -2.25018 -40.0133 255 0 0
13.0971 -2.25018 -39.88 0 255 0
13.0971 -2.25018 -39.7467 255 0 0
13.0971 -2.25018 -39.6133 255 0 0
13.0971 -2.25018 -39.48 255 0 0
13.0971 -2.25018 -39.3467 255 0 0
13.0971 -2.25018 -39.2133 255 0 0
13.0971 -2.25018 -39.08 255 0 0
13.0971 -2.25018 -38.9467 255 0 0
13.0971 -2.25018 -38.8133 255 0 0
13.0971 -2.25018 -38.68 255 0 0
13.0971 -2.25018 -38.5467 255 0 0
13.0971 -2.25018 -38.4133 255 0 0
13.0971 -2.25018 -38.28 255 0 0
13.0971 -2.25018 -38.1467 255 0 0
13.0971 -2.25018 -38.0133 255 0 0
13.0971 -2.25018 -37.88 255 0 0
13.4973 -1.55708 -41.88 255 0 0
13.4973 -1.55708 -41.7467 255 0 0
13.4973 -1.55708 -41.6133 255 0 0
13.4973 -1.55708 -41.48 255 0 0
13.4973 -1.55708 -41.3467 255 0 0
13.4973 -1.55708 -41.2133 255 0 0
13.4973 -1.55708 -41.08 255 0 0
13.4973 -1.55708 -40.9467 255 0 0
13.4973 -1.55708 -40.8133 255 0 0
13.4973 -1.55708 -40.68 255 0 0
13.4973 -1.55708 -40.5467 255 0 0
13.4973 -1.55708 -40.4133 255 0 0
13.4973 -1.55708 -40.28 255 0 0
13.4973 -1.55708 -40.1467 255 0 0
13.4973 -1.55708 -40.0133 255 0 0
13.4973 -1.55708 -39.88 0 255 0
13.4973 -1.55708 -39.7467 255 0 0
13.4973 -1.55708 -39.6133 255 0 0
13.4973 -1.55708 -39.48 255 0 0
13.4973 -1.55708 -39.3467 255 0 0
13.4973 -1.55708 -39.2133 255 0 0
13.4973 -1.55708 -39.08 255 0 0
13.4973 -1.55708 -38.9467 255 0 0
13.4973 -1.55708 -38.8133 255 0 0
13.4973 -1.55708 -38.68 255 0 0
13.4973 -1.55708 -38.5467 255 0 0
13.4973 -1.55708 -38.4133 255 0 0
13.4973 -1.55708 -38.28 255 0 0
13.4973 -1.55708 -38.1467 255 0 0
13.4973 -1.55708 -38.0133 255 0 0
13.4973 -1.55708 -37.88 255 0 0
13.7446 -0.795935 -41.88 255 0 0
13.7446 -0.795935 -41.7467 255 0 0
13.7446 -0.795935 -41.6133 255 0 0
13.7446 -0.795935 -41.48 255 0 0
13.7446 -0.795935 -41.3467 255 0 0
13.7446 -0.795935 -41.2133 255 0 0
13.7446 -0.795935 -41.08 255 0 0
13.7446 -0.795935 -40.9467 255 0 0
13.7446 -0.795935 -40.8133 255 0 0
13.7446 -0.795935 -40.68 255 0 0
13.7446 -0.795935 -40.5467 255 0 0
13.7446 -0.795935 -40.4133 255 0 0
13.7446 -0.795935 -40.28 255 0 0
13.7446 -0.795935 -40.1467 255 0 0
13.7446 -0.795935 -40.0133 255 0 0
13.7446 -0.795935 -39.88 0 255 0
13.7446 -0.795935 -39.7467 255 0 0
13.7446 -0.795935 -39.6133 255 0 0
13.7446 -0.795935 -39.48 255 0 0
13.7446 -0.795935 -39.3467 255 0 0
13.7446 -0.795935 -39.2133 255 0 0
13.7446 -0.795935 -39.08 255 0 0
13.7446 -0.795935 -38.9467 255 0 0
13.7446 -0.795935 -38.8133 255 0 0
13.7446 -0.795935 -38.68 255 0 0
13.7446 -0.795935 -38.5467 255 0 0
13.7446 -0.795935 -38.4133 255 0 0
13.7446 -0.795935 -38.28 255 0 0
13.7446 -0.795935 -38.1467 255 0 0
13.7446 -0.795935 -38.0133 255 0 0
13.7446 -0.795935 -37.88 255 0 0
13.8282 1.85633e-12 -41.88 255 0 0
13.8282 1.85633e-12 -41.7467 255 0 0
13.8282 1.85633e-12 -41.6133 255 0 0
13.8282 1.85633e-12 -41.48 255 0 0
13.8282 1.85633e-12 -41.3467 255 0 0
13.8282 1.85633e-12 -41.2133 255 0 0
13.8282 1.85633e-12 -41.08 255 0 0
13.8282 1.85633e-12 -40.9467 255 0 0
13.8282 1.85633e-12 -40.8133 255 0 0
13.8282 1.85633e-12 -40.68 255 0 0
13.8282 1.85633e-12 -40.5467 255 0 0
13.8282 1.85633e-12 -40.4133 255 0 0
13.8282 1.85633e-12 -40.28 255 0 0
13.8282 1.85633e-12 -40.1467 255 0 0
13.8282 1.85633e-12 -40.0133 255 0 0
13.8282 1.85633e-12 -39.88 0 255 0
13.8282 1.85633e-12 -39.7467 255 0 0
13.8282 1.85633e-12 -39.6133 255 0 0
13.8282 1.85633e-12 -39.48 255 0 0
13.8282 1.85633e-12 -39.3467 255 0 0
13.8282 1.85633e-12 -39.2133 255 0 0
13.8282 1.85633e-12 -39.08 255 0 0
13.8282 1.85633e-12 -38.9467 255 0 0
13.8282 1.85633e-12 -38.8133 255 0 0
13.8282 1.85633e-12 -38.68 255 0 0
13.8282 1.85633e-12 -38.5467 255 0 0
13.8282 1.85633e-12 -38.4133 255 0 0
13.8282 1.85633e-12 -38.28 255 0 0
13.8282 1.85633e-12 -38.1467 255 0 0
13.8282 1.85633e-12 -38.0133 255 0 0
13.8282 1.85633e-12 -37.88 255 0 0
13.7446 0.795935 -41.88 255 0 0
13.7446 0.795935 -41.7467 255 0 0
13.7446 0.795935 -41.6133 255 0 0
13.7446 0.795935 -41.48 255 0 0
13.7446 0.795935 -41.3467 255 0 0
13.7446 0.795935 -41.2133 255 0 0
13.7446 0.795935 -41.08 255 0 0
13.7446 0.795935 -40.9467 255 0 0
13.7446 0.795935 -40.8133 255 0 0
13.7446 0.795935 -40.68 255 0 0
13.7446 0.795935 -40.5467 255 0 0
13.7446 0.795935 -40.4133 255 0 0
13.7446 0.795935 -40.28 255 0 0
13.7446 0.795935 -40.1467 255 0 0
13.7446 0.795935 -40.0133 255 0 0
13.7446 0.795935 -39.88 0 255 0
13.7446 0.795935 -39.7467 255 0 0
13.7446 0.795935 -39.6133 255 0 0
13.7446 0.795935 -39.48 255 0 0
13.7446 0.795935 -39.3467 255 0 0
13.7446 0.795935 -39.2133 255 0 0
13.7446 0.795935 -39.08 255 0 0
13.7446 0.795935 -38.9467 255 0 0
13.7446 0.795935 -38.8133 255 0 0
13.7446 0.795935 -38.68 255 0 0
13.7446 0.795935 -38.5467 255 0 0
13.7446 0.795935 -38.4133 255 0 0
13.7446 0.795935 -38.28 255 0 0
13.7446 0.795935 -38.1467 255 0 0
13.7446 0.795935 -38.0133 255 0 0
13.7446 0.795935 -37.88 255 0 0
13.4973 1.55708 -41.88 255 0 0
13.4973 1.55708 -41.7467 255 0 0
13.4973 1.55708 -41.6133 255 0 0
13.4973 1.55708 -41.48 255 0 0
13.4973 1.55708 -41.3467 255 0 0
13.4973 1.55708 -41.2133 255 0 0
13.4973 1.55708 -41.08 255 0 0
13.4973 1.55708 -40.9467 255 0 0
13.4973 1.55708 -40.8133 255 0 0
13.4973 1.55708 -40.68 255 0 0
13.4973 1.55708 -40.5467 255 0 0
13.4973 1.55708 -40.4133 255 0 0
13.4973 1.55708 -40.28 255 0 0
13.4973 1.55708 -40.1467 255 0 0
13.4973 1.55708 -40.0133 255 0 0
13.4973 1.55708 -39.88 0 255 0
13.4973 1.55708 -39.7467 255 0 0
13.4973 1.55708 -39.6133 255 0 0
13.4973 1.55708 -39.48 255 0 0
13.4973 1.55708 -39.3467 255 0 0
13.4973 1.55708 -39.2133 255 0 0
13.4973 1.55708 -39.08 255 0 0
13.4973 1.55708 -38.9467 255 0 0
13.4973 1.55708 -38.8133 255 0 0
13.4973 1.55708 -38.68 255 0 0
13.4973 1.55708 -38.5467 255 0 0
13.4973 1.55708 -38.4133 255 0 0
13.4973 1.55708 -38.28 255 0 0
13.4973 1.55708 -38.1467 255 0 0
13.4973 1.55708 -38.0133 255 0 0
13.4973 1.55708 -37.88 255 0 0
13.0971 2.25018 -41.88 255 0 0
13.0971 2.25018 -41.7467 255 0 0
13.0971 2.25018 -41.6133 255 0 0
13.0971 2.25018 -41.48 255 0 0
13.0971 2.25018 -41.3467 255 0 0
13.0971 2.25018 -41.2133 255 0 0
13.0971 2.25018 -41.08 255 0 0
13.0971 2.25018 -40.9467 255 0 0
13.0971 2.25018 -40.8133 255 0 0
13.0971 2.25018 -40.68 255 0 0
13.0971 2.25018 -40.5467 255 0 0
13.0971 2.25018 -40.4133 255 0 0
13.0971 2.25018 -40.28 255 0 0
13.0971 2.25018 -40.1467 255 0 0
13.0971 2.25018 -40.0133 255 0 0
13.0971 2.25018 -39.88 0 255 0
13.0971 2.25018 -39.7467 255 0 0
13.0971 2.25018 -39.6133 255 0 0
13.0971 2.25018 -39.48 255 0 0
13.0971 2.25018 -39.3467 255 0 0
13.0971 2.25018 -39.2133 255 0 0
13.0971 2.25018 -39.08 255 0 0
13.0971 2.25018 -38.9467 255 0 0
13.0971 2.25018 -38.8133 255 0 0
13.0971 2.25018 -38.68 255 0 0
13.0971 2.25018 -38.5467 255 0 0
13.0971 2.25018 -38.4133 255 0 0
13.0971 2.25018 -38.28 255 0 0
13.0971 2.25018 -38.1467 255 0 0
13.0971 2.25018 -38.0133 255 0 0
13.0971 2.25018 -37.88 255 0 0
12.5616 2.84494 -41.88 255 0 0
12.5616 2.84494 -41.7467 255 0 0
12.5616 2.84494 -41.6133 255 0 0
12.5616 2.84494 -41.48 255 0 0
12.5616 2.84494 -41.3467 255 0 0
12.5616 2.84494 -41.2133 255 0 0
12.5616 2.84494 -41.08 255 0 0
12.5616 2.84494 -40.9467 255 0 0
12.5616 2.84494 -40.8133 255 0 0
12.5616 2.84494 -40.68 255 0 0
12.5616 2.84494 -40.5467 255 0 0
12.5616 2.84494 -40.4133 255 0 0
12.5616 2.84494 -40.28 255 0 0
12.5616 2.84494 -40.1467 255 0 0
12.5616 2.84494 -40.0133 255 0 0
12.5616 2.84494 -39.88 0 255 0
12.5616 2.84494 -39.7467 255 0 0
12.5616 2.84494 -39.6133 255 0 0
12.5616 2.84494 -39.48 255 0 0
12.5616 2.84494 -39.3467 255 0 0
12.5616 2.84494 -39.2133 255 0 0
12.5616 2.84494 -39.08 255 0 0
12.5616 2.84494 -38.9467 255 0 0
12.5616 2.84494 -38.8133 255 0 0
12.5616 2.84494 -38.68 255 0 0
12.5616 2.84494 -38.5467 255 0 0
12.5616 2.84494 -38.4133 255 0 0
12.5616 2.84494 -38.28 255 0 0
12.5616 2.84494 -38.1467 255 0 0
12.5616 2.84494 -38.0133 255 0 0
12.5616 2.84494 -37.88 255 0 0
11.9141 3.31535 -41.88 255 0 0
11.9141 3.31535 -41.7467 255 0 0
11.9141 3.31535 -41.6133 255 0 0
11.9141 3.31535 -41.48 255 0 0
11.9141 3.31535 -41.3467 255 0 0
11.9141 3.31535 -41.2133 255 0 0
11.9141 3.31535 -41.08 255 0 0
11.9141 3.31535 -40.9467 255 0 0
11.9141 3.31535 -40.8133 255 0 0
11.9141 3.31535 -40.68 255 0 0
11.9141 3.31535 -40.5467 255 0 0
11.9141 3.31535 -40.4133 255 0 0
11.9141 3.31535 -40.28 255 0 0
11.9141 3.31535 -40.1467 255 0 0
11.9141 3.31535 -40.0133 255 0 0
11.9141 3.31535 -39.88 0 255 0
11.9141 3.31535 -39.7467 255 0 0
11.9141 3.31535 -39.6133 255 0 0
11.9141 3.31535 -39.48 255 0 0
11.9141 3.31535 -39.3467 255 0 0
11.9141 3.31535 -39.2133 255 0 0
11.9141 3.31535 -39.08 255 0 0
11.9141 3.31535 -38.9467 255 0 0
11.9141 3.31535 -38.8133 255 0 0
11.9141 3.31535 -38.68 255 0 0
11.9141 3.31535 -38.5467 255 0 0
11.9141 3.31535 -38.4133 255 0 0
11.9141 3.31535 -38.28 255 0 0
11.9141 3.31535 -38.1467 255 0 0
11.9141 3.31535 -38.0133 255 0 0
11.9141 3.31535 -37.88 255 0 0
11.183 3.64087 -41.88 255 0 0
11.183 3.64087 -41.7467 255 0 0
11.183 3.64087 -41.6133 255 0 0
11.183 3.64087 -41.48 255 0 0
11.183 3.64087 -41.3467 255 0 0
11.183 3.64087 -41.2133 255 0 0
11.183 3.64087 -41.08 255 0 0
11.183 3.64087 -40.9467 255 0 0
11.183 3.64087 -40.8133 255 0 0
11.183 3.64087 -40.68 255 0 0
11.183 3.64087 -40.5467 255 0 0
11.183 3.64087 -40.4133 255 0 0
11.183 3.64087 -40.28 255 0 0
11.183 3.64087 -40.1467 255 0 0
11.183 3.64087 -40.0133 255 0 0
11.183 3.64087 -39.88 0 255 0
11.183 3.64087 -39.7467 255 0 0
11.183 3.64087 -39.6133 255 0 0
11.183 3.64087 -39.48 255 0 0
11.183 3.64087 -39.3467 255 0 0
11.183 3.64087 -39.2133 255 0 0
11.183 3.64087 -39.08 255 0 0
11.183 3.64087 -38.9467 255 0 0
11.183 3.64087 -38.8133 255 0 0
11.183 3.64087 -38.68 255 0 0
11.183 3.64087 -38.5467 255 0 0
11.183 3.64087 -38.4133 255 0 0
11.183 3.64087 -38.28 255 0 0
11.183 3.64087 -38.1467 255 0 0
11.183 3.64087 -38.0133 255 0 0
11.183 3.64087 -37.88 255 0 0
10.4002 3.80727 -41.88 255 0 0
10.4002 3.80727 -41.7467 255 0 0
10.4002 3.80727 -41.6133 255 0 0
10.4002 3.80727 -41.48 255 0 0
10.4002 3.80727 -41.3467 255 0 0
10.4002 3.80727 -41.2133 255 0 0
10.4002 3.80727 -41.08 255 0 0
10.4002 3.80727 -40.9467 255 0 0
10.4002 3.80727 -40.8133 255 0 0
10.4002 3.80727 -40.68 255 0 0
10.4002 3.80727 -40.5467 255 0 0
10.4002 3.80727 -40.4133 255 0 0
10.4002 3.80727 -40.28 255 0 0
10.4002 3.80727 -40.1467 255 0 0
10.4002 3.80727 -40.0133 255 0 0
10.4002 3.80727 -39.88 0 255 0
10.4002 3.80727 -39.7467 255 0 0
10.4002 3.80727 -39.6133 255 0 0
10.4002 3.80727 -39.48 255 0 0
10.4002 3.80727 -39.3467 255 0 0
10.4002 3.80727 -39.2133 255 0 0
10.4002 3.80727 -39.08 255 0 0
10.4002 3.80727 -38.9467 255 0 0
10.4002 3.80727 -38.8133 255 0 0
10.4002 3.80727 -38.68 255 0 0
10.4002 3.80727 -38.5467 255 0 0
10.4002 3.80727 -38.4133 255 0 0
10.4002 3.80727 -38.28 255 0 0
10.4002 3.80727 -38.1467 255 0 0
10.4002 3.80727 -38.0133 255 0 0
10.4002 3.80727 -37.88 255 0 0
9.59984 3.80727 -41.88 255 0 0
9.59984 3.80727 -41.7467 255 0 0
9.59984 3.80727 -41.6133 255 0 0
9.59984 3.80727 -41.48 255 0 0
9.59984 3.80727 -41.3467 255 0 0
9.59984 3.80727 -41.2133 255 0 0
9.59984 3.80727 -41.08 255 0 0
9.59984 3.80727 -40.9467 255 0 0
9.59984 3.80727 -40.8133 255 0 0
9.59984 3.80727 -40.68 255 0 0
9.59984 3.80727 -40.5467 255 0 0
9.59984 3.80727 -40.4133 255 0 0
9.59984 3.80727 -40.28 255 0 0
9.59984 3.80727 -40.1467 255 0 0
9.59984 3.80727 -40.0133 255 0 0
9.59984 3.80727 -39.88 0 255 0
9.59984 3.80727 -39.7467 255 0 0
9.59984 3.80727 -39.6133 255 0 0
9.59984 3.80727 -39.48 255 0 0
9.59984 3.80727 -39.3467 255 0 0
9.59984 3.80727 -39.2133 255 0 0
9.59984 3.80727 -39.08 255 0 0
9.59984 3.80727 -38.9467 255 0 0
9.59984 3.80727 -38.8133 255 0 0
9.59984 3.80727 -38.68 255 0 0
9.59984 3.80727 -38.5467 255 0 0
9.59984 3.80727 -38.4133 255 0 0
9.59984 3.80727 -38.28 255 0 0
9.59984 3.80727 -38.1467 255 0 0
9.59984 3.80727 -38.0133 255 0 0
9.59984 3.80727 -37.88 255 0 0
8.81701 3.64087 -41.88 255 0 0
8.81701 3.64087 -41.7467 255 0 0
8.81701 3.64087 -41.6133 255 0 0
8.81701 3.64087 -41.48 255 0 0
8.81701 3.64087 -41.3467 255 0 0
8.81701 3.64087 -41.2133 255 0 0
8.81701 3.64087 -41.08 255 0 0
8.81701 3.64087 -40.9467 255 0 0
8.81701 3.64087 -40.8133 255 0 0
8.81701 3.64087 -40.68 255 0 0
8.81701 3.64087 -40.5467 255 0 0
8.81701 3.64087 -40.4133 255 0 0
8.81701 3.64087 -40.28 255 0 0
8.81701 3.64087 -40.1467 255 0 0
8.81701 3.64087 -40.0133 255 0 0
8.81701 3.64087 -39.88 0 255 0
8.81701 3.64087 -39.7467 255 0 0
8.81701 3.64087 -39.6133 255 0 0
8.81701 3.64087 -39.48 255 0 0
8.81701 3.64087 -39.3467 255 0 0
8.81701 3.64087 -39.2133 255 0 0
8.81701 3.64087 -39.08 255 0 0
8.81701 3.64087 -38.9467 255 0 0
8.81701 3.64087 -38.8133 255 0 0
8.81701 3.64087 -38.68 255 0 0
8.81701 3.64087 -38.5467 255 0 0
8.81701 3.64087 -38.4133 255 0 0
8.81701 3.64087 -38.28 255 0 0
8.81701 3.64087 -38.1467 255 0 0
8.81701 3.64087 -38.0133 255 0 0
8.81701 3.64087 -37.88 255 0 0
8.08588 3.31535 -41.88 255 0 0
8.08588 3.31535 -41.7467 255 0 0
8.08588 3.31535 -41.6133 255 0 0
8.08588 3.31535 -41.48 255 0 0
8.08588 3.31535 -41.3467 255 0 0
8.08588 3.31535 -41.2133 255 0 0
8.08588 3.31535 -41.08 255 0 0
8.08588 3.31535 -40.9467 255 0 0
8.08588 3.31535 -40.8133 255 0 0
8.08588 3.31535 -40.68 255 0 0
8.08588 3.31535 -40.5467 255 0 0
8.08588 3.31535 -40.4133 255 0 0
8.08588 3.31535 -40.28 255 0 0
8.08588 3.31535 -40.1467 255 0 0
8.08588 3.31535 -40.0133 255 0 0
8.08588 3.31535 -39.88 0 255 0
8.08588 3.31535 -39.7467 255 0 0
8.08588 3.31535 -39.6133 255 0 0
8.08588 3.31535 -39.48 255 0 0
8.08588 3.31535 -39.3467 255 0 0
8.08588 3.31535 -39.2133 255 0 0
8.08588 3.31535 -39.08 255 0 0
8.08588 3.31535 -38.9467 255 0 0
8.08588 3.31535 -38.8133 255 0 0
8.08588 3.31535 -38.68 255 0 0
8.08588 3.31535 -38.5467 255 0 0
8.08588 3.31535 -38.4133 255 0 0
8.08588 3.31535 -38.28 255 0 0
8.08588 3.31535 -38.1467 255 0 0
8.08588 3.31535 -38.0133 255 0 0
8.08588 3.31535 -37.88 255 0 0
7.43841 2.84494 -41.88 255 0 0
7.43841 2.84494 -41.7467 255 0 0
7.43841 2.84494 -41.6133 255 0 0
7.43841 2.84494 -41.48 255 0 0
7.43841 2.84494 -41.3467 255 0 0
7.43841 2.84494 -41.2133 255 0 0
7.43841 2.84494 -41.08 255 0 0
7.43841 2.84494 -40.9467 255 0 0
7.43841 2.84494 -40.8133 255 0 0
7.43841 2.84494 -40.68 255 0 0
7.43841 2.84494 -40.5467 255 0 0
7.43841 2.84494 -40.4133 255 0 0
7.43841 2.84494 -40.28 255 0 0
7.43841 2.84494 -40.1467 255 0 0
7.43841 2.84494 -40.0133 255 0 0
7.43841 2.84494 -39.88 0 255 0
7.43841 2.84494 -39.7467 255 0 0
7.43841 2.84494 -39.6133 255 0 0
7.43841 2.84494 -39.48 255 0 0
7.43841 2.84494 -39.3467 255 0 0
7.43841 2.84494 -39.2133 255 0 0
7.43841 2.84494 -39.08 255 0 0
7.43841 2.84494 -38.9467 255 0 0
7.43841 2.84494 -38.8133 255 0 0
7.43841 2.84494 -38.68 255 0 0
7.43841 2.84494 -38.5467 255 0 0
7.43841 2.84494 -38.4133 255 0 0
7.43841 2.84494 -38.28 255 0 0
7.43841 2.84494 -38.1467 255 0 0
7.43841 2.84494 -38.0133 255 0 0
7.43841 2.84494 -37.88 255 0 0
6.90289 2.25018 -41.88 255 0 0
6.90289 2.25018 -41.7467 255 0 0
6.90289 2.25018 -41.6133 255 0 0
6.90289 2.25018 -41.48 255 0 0
6.90289 2.25018 -41.3467 255 0 0
6.90289 2.25018 -41.2133 255 0 0
6.90289 2.25018 -41.08 255 0 0
6.90289 2.25018 -40.9467 255 0 0
6.90289 2.25018 -40.8133 255 0 0
6.90289 2.25018 -40.68 255 0 0
6.90289 2.25018 -40.5467 255 0 0
6.90289 2.25018 -40.4133 255 0 0
6.90289 2.25018 -40.28 255 0 0
6.90289 2.25018 -40.1467 255 0 0
6.90289 2.25018 -40.0133 255 0 0
6.90289 2.25018 -39.88 0 255 0
6.90289 2.25018 -39.7467 255 0 0
6.90289 2.25018 -39.6133 255 0 0
6.90289 2.25018 -39.48 255 0 0
6.90289 2.25018 -39.3467 255 0 0
6.90289 2.25018 -39.2133 255 0 0
6.90289 2.25018 -39.08 255 0 0
6.90289 2.25018 -38.9467 255 0 0
6.90289 2.25018 -38.8133 255 0 0
6.90289 2.25018 -38.68 255 0 0
6.90289 2.25018 -38.5467 255 0 0
6.90289 2.25018 -38.4133 255 0 0
6.90289 2.25018 -38.28 255 0 0
6.90289 2.25018 -38.1467 255 0 0
6.90289 2.25018 -38.0133 255 0 0
6.90289 2.25018 -37.88 255 0 0
6.50273 1.55708 -41.88 255 0 0
6.50273 1.55708 -41.7467 255 0 0
6.50273 1.55708 -41.6133 255 0 0
6.50273 1.55708 -41.48 255 0 0
6.50273 1.55708 -41.3467 255 0 0
6.50273 1.55708 -41.2133 255 0 0
6.50273 1.55708 -41.08 255 0 0
6.50273 1.55708 -40.9467 255 0 0
6.50273 1.55708 -40.8133 255 0 0
6.50273 1.55708 -40.68 255 0 0
6.50273 1.55708 -40.5467 255 0 0
6.50273 1.55708 -40.4133 255 0 0
6.50273 1.55708 -40.28 255 0 0
6.50273 1.55708 -40.1467 255 0 0
6.50273 1.55708 -40.0133 255 0 0
6.50273 1.55708 -39.88 0 255 0
6.50273 1.55708 -39.7467 255 0 0
6.50273 1.55708 -39.6133 255 0 0
6.50273 1.55708 -39.48 255 0 0
6.50273 1.55708 -39.3467 255 0 0
6.50273 1.55708 -39.2133 255 0 0
6.50273 1.55708 -39.08 255 0 0
6.50273 1.55708 -38.9467 255 0 0
6.50273 1.55708 -38.8133 255 0 0
6.50273 1.55708 -38.68 255 0 0
6.50273 1.55708 -38.5467 255 0 0
6.50273 1.55708 -38.4133 255 0 0
6.50273 1.55708 -38.28 255 0 0
6.50273 1.55708 -38.1467 255 0 0
6.50273 1.55708 -38.0133 255 0 0
6.50273 1.55708 -37.88 255 0 0
6.25542 0.795935 -41.88 255 0 0
6.25542 0.795935 -41.7467 255 0 0
6.25542 0.795935 -41.6133 255 0 0
6.25542 0.795935 -41.48 255 0 0
6.25542 0.795935 -41.3467 255 0 0
6.25542 0.795935 -41.2133 255 0 0
6.25542 0.795935 -41.08 255 0 0
6.25542 0.795935 -40.9467 255 0 0
6.25542 0.795935 -40.8133 255 0 0
6.25542 0.795935 -40.68 255 0 0
6.25542 0.795935 -40.5467 255 0 0
6.25542 0.795935 -40.4133 255 0 0
6.25542 0.795935 -40.28 255 0 0
6.25542 0.795935 -40.1467 255 0 0
6.25542 0.795935 -40.0133 255 0 0
6.25542 0.795935 -39.88 0 255 0
6.25542 0.795935 -39.7467 255 0 0
6.25542 0.795935 -39.6133 255 0 0
6.25542 0.795935 -39.48 255 0 0
6.25542 0.795935 -39.3467 255 0 0
6.25542 0.795935 -39.2133 255 0 0
6.25542 0.795935 -39.08 255 0 0
6.25542 0.795935 -38.9467 255 0 0
6.25542 0.795935 -38.8133 255 0 0
6.25542 0.795935 -38.68 255 0 0
6.25542 0.795935 -38.5467 255 0 0
6.25542 0.795935 -38.4133 255 0 0
6.25542 0.795935 -38.28 255 0 0
6.25542 0.795935 -38.1467 255 0 0
6.25542 0.795935 -38.0133 255 0 0
6.25542 0.795935 -37.88 255 0 0
6.17176 1.85867e-12 -41.88 255 0 0
6.17176 1.85867e-12 -41.7467 255 0 0
6.17176 1.85867e-12 -41.6133 255 0 0
6.17176 1.85867e-12 -41.48 255 0 0
6.17176 1.85867e-12 -41.3467 255 0 0
6.17176 1.85867e-12 -41.2133 255 0 0
6.17176 1.85867e-12 -41.08 255 0 0
6.17176 1.85867e-12 -40.9467 255 0 0
6.17176 1.85867e-12 -40.8133 255 0 0
6.17176 1.85867e-12 -40.68 255 0 0
6.17176 1.85867e-12 -40.5467 255 0 0
6.17176 1.85867e-12 -40.4133 255 0 0
6.17176 1.85867e-12 -40.28 255 0 0
6.17176 1.85867e-12 -40.1467 255 0 0
6.17176 1.85867e-12 -40.0133 255 0 0
6.17176 1.85867e-12 -39.88 0 255 0
6.17176 1.85867e-12 -39.7467 255 0 0
6.17176 1.85867e-12 -39.6133 255 0 0
6.17176 1.85867e-12 -39.48 255 0 0
6.17176 1.85867e-12 -39.3467 255 0 0
6.17176 1.85867e-12 -39.2133 255 0 0
6.17176 1.85867e-12 -39.08 255 0 0
6.17176 1.85867e-12 -38.9467 255 0 0
6.17176 1.85867e-12 -38.8133 255 0 0
6.17176 1.85867e-12 -38.68 255 0 0
6.17176 1.85867e-12 -38.5467 255 0 0
6.17176 1.85867e-12 -38.4133 255 0 0
6.17176 1.85867e-12 -38.28 255 0 0
6.17176 1.85867e-12 -38.1467 255 0 0
6.17176 1.85867e-12 -38.0133 255 0 0
6.17176 1.85867e-12 -37.88 255 0 0
