ply
format ascii 1.0
element vertex 961
property float x
property float y
property float z
property uchar red
property uchar green
property uchar blue
end_header
6.84251 1.85746e-12 -44.18 255 0 0
6.84251 1.85746e-12 -44.1033 255 0 0
6.84251 1.85746e-12 -44.0267 255 0 0
6.84251 1.85746e-12 -43.95 255 0 0
6.84251 1.85746e-12 -43.8733 255 0 0
6.84251 1.85746e-12 -43.7967 255 0 0
6.84251 1.85746e-12 -43.72 255 0 0
6.84251 1.85746e-12 -43.6433 255 0 0
6.84251 1.85746e-12 -43.5667 255 0 0
6.84251 1.85746e-12 -43.49 255 0 0
6.84251 1.85746e-12 -43.4133 255 0 0
6.84251 1.85746e-12 -43.3367 255 0 0
6.84251 1.85746e-12 -43.26 255 0 0
6.84251 1.85746e-12 -43.1833 255 0 0
6.84251 1.85746e-12 -43.1067 255 0 0
6.84251 1.85746e-12 -43.03 0 255 0
6.84251 1.85746e-12 -42.9533 255 0 0
6.84251 1.85746e-12 -42.8767 255 0 0
6.84251 1.85746e-12 -42.8 255 0 0
6.84251 1.85746e-12 -42.7233 255 0 0
6.84251 1.85746e-12 -42.6467 255 0 0
6.84251 1.85746e-12 -42.57 255 0 0
6.84251 1.85746e-12 -42.4933 255 0 0
6.84251 1.85746e-12 -42.4167 255 0 0
6.84251 1.85746e-12 -42.34 255 0 0
6.84251 1.85746e-12 -42.2633 255 0 0
6.84251 1.85746e-12 -42.1867 255 0 0
6.84251 1.85746e-12 -42.11 255 0 0
6.84251 1.85746e-12 -42.0333 255 0 0
6.84251 1.85746e-12 -41.9567 255 0 0
6.84251 1.85746e-12 -41.88 255 0 0
6.91151 -0.656478 -44.18 255 0 0
6.91151 -0.656478 -44.1033 255 0 0
6.91151 -0.656478 -44.0267 255 0 0
6.91151 -0.656478 -43.95 255 0 0
6.91151 -0.656478 -43.8733 255 0 0
6.91151 -0.656478 -43.7967 255 0 0
6.91151 -0.656478 -43.72 255 0 0
6.91151 -0.656478 -43.6433 255 0 0
6.91151 -0.656478 -43.5667 255 0 0
6.91151 -0.656478 -43.49 255 0 0
6.91151 -0.656478 -43.4133 255 0 0
6.91151 -0.656478 -43.3367 255 0 0
6.91151 -0.656478 -43.26 255 0 0
6.91151 -0.656478 -43.1833 255 0 0
6.91151 -0.656478 -43.1067 255 0 0
6.91151 -0.656478 -43.03 0 255 0
6.91151 -0.656478 -42.9533 255 0 0
6.91151 -0.656478 -42.8767 255 0 0
6.91151 -0.656478 -42.8 255 0 0
6.91151 -0.656478 -42.7233 255 0 0
6.91151 -0.656478 -42.6467 255 0 0
6.91151 -0.656478 -42.57 255 0 0
6.91151 -0.656478 -42.4933 255 0 0
6.91151 -0.656478 -42.4167 255 0 0
6.91151 -0.656478 -42.34 255 0 0
6.91151 -0.656478 -42.2633 255 0 0
6.91151 -0.656478 -42.1867 255 0 0
6.91151 -0.656478 -42.11 255 0 0
6.91151 -0.656478 -42.0333 255 0 0
6.91151 -0.656478 -41.9567 255 0 0
6.91151 -0.656478 -41.88 255 0 0
7.11549 -1.28427 -44.18 255 0 0
7.11549 -1.28427 -44.1033 255 0 0
7.11549 -1.28427 -44.0267 255 0 0
7.11549 -1.28427 -43.95 255 0 0
7.11549 -1.28427 -43.8733 255 0 0
7.11549 -1.28427 -43.7967 255 0 0
7.11549 -1.28427 -43.72 255 0 0
7.11549 -1.28427 -43.6433 255 0 0
7.11549 -1.28427 -43.5667 255 0 0
7.11549 -1.28427 -43.49 255 0 0
7.11549 -1.28427 -43.4133 255 0 0
7.11549 -1.28427 -43.3367 255 0 0
7.11549 -1.28427 -43.26 255 0 0
7.11549 -1.28427 -43.1833 255 0 0
7.11549 -1.28427 -43.1067 255 0 0
7.11549 -1.28427 -43.03 0 255 0
7.11549 -1.28427 -42.9533 255 0 0
7.11549 -1.28427 -42.8767 255 0 0
7.11549 -1.28427 -42.8 255 0 0
7.11549 -1.28427 -42.7233 255 0 0
7.11549 -1.28427 -42.6467 255 0 0
7.11549 -1.28427 -42.57 255 0 0
7.11549 -1.28427 -42.4933 255 0 0
7.11549 -1.28427 -42.4167 255 0 0
7.11549 -1.28427 -42.34 255 0 0
7.11549 -1.28427 -42.2633 255 0 0
7.11549 -1.28427 -42.1867 255 0 0
7.11549 -1.28427 -42.11 255 0 0
7.11549 -1.28427 -42.0333 255 0 0
7.11549 -1.28427 -41.9567 255 0 0
7.11549 -1.28427 -41.88 255 0 0
7.44554 -1.85592 -44.18 255 0 0
7.44554 -1.85592 -44.1033 255 0 0
7.44554 -1.85592 -44.0267 255 0 0
7.44554 -1.85592 -43.95 255 0 0
7.44554 -1.85592 -43.8733 255 0 0
7.44554 -1.85592 -43.7967 255 0 0
7.44554 -1.85592 -43.72 255 0 0
7.44554 -1.85592 -43.6433 255 0 0
7.44554 -1.85592 -43.5667 255 0 0
7.44554 -1.85592 -43.49 255 0 0
7.44554 -1.85592 -43.4133 255 0 0
7.44554 -1.85592 -43.3367 255 0 0
7.44554 -1.85592 -43.26 255 0 0
7.44554 -1.85592 -43.1833 255 0 0
7.44554 -1.85592 -43.1067 255 0 0
7.44554 -1.85592 -43.03 0 255 0
7.44554 -1.85592 -42.9533 255 0 0
7.44554 -1.85592 -42.8767 255 0 0
7.44554 -1.85592 -42.8 255 0 0
7.44554 -1.85592 -42.7233 255 0 0
7.44554 -1.85592 -42.6467 255 0 0
7.44554 -1.85592 -42.57 255 0 0
7.44554 -1.85592 -42.4933 255 0 0
7.44554 -1.85592 -42.4167 255 0 0
7.44554 -1.85592 -42.34 255 0 0
7.44554 -1.85592 -42.2633 255 0 0
7.44554 -1.85592 -42.1867 255 0 0
7.44554 -1.85592 -42.11 255 0 0
7.44554 -1.85592 -42.0333 255 0 0
7.44554 -1.85592 -41.9567 255 0 0
7.44554 -1.85592 -41.88 255 0 0
7.88723 -2.34647 -44.18 255 0 0
7.88723 -2.34647 -44.1033 255 0 0
7.88723 -2.34647 -44.0267 255 0 0
7.88723 -2.34647 -43.95 255 0 0
7.88723 -2.34647 -43.8733 255 0 0
7.88723 -2.34647 -43.7967 255 0 0
7.88723 -2.34647 -43.72 255 0 0
7.88723 -2.34647 -43.6433 255 0 0
7.88723 -2.34647 -43.5667 255 0 0
7.88723 -2.34647 -43.49 255 0 0
7.88723 -2.34647 -43.4133 255 0 0
7.88723 -2.34647 -43.3367 255 0 0
7.88723 -2.34647 -43.26 255 0 0
7.88723 -2.34647 -43.1833 255 0 0
7.88723 -2.34647 -43.1067 255 0 0
7.88723 -2.34647 -43.03 0 255 0
7.88723 -2.34647 -42.9533 255 0 0
7.88723 -2.34647 -42.8767 255 0 0
7.88723 -2.34647 -42.8 255 0 0
7.88723 -2.34647 -42.7233 255 0 0
7.88723 -2.34647 -42.6467 255 0 0
7.88723 -2.34647 -42.57 255 0 0
7.88723 -2.34647 -42.4933 255 0 0
7.88723 -2.34647 -42.4167 255 0 0
7.88723 -2.34647 -42.34 255 0 0
7.88723 -2.34647 -42.2633 255 0 0
7.88723 -2.34647 -42.1867 255 0 0
7.88723 -2.34647 -42.11 255 0 0
7.88723 -2.34647 -42.0333 255 0 0
7.88723 -2.34647 -41.9567 255 0 0
7.88723 -2.34647 -41.88 255 0 0
8.42126 -2.73446 -44.18 255 0 0
8.42126 -2.73446 -44.1033 255 0 0
8.42126 -2.73446 -44.0267 255 0 0
8.42126 -2.73446 -43.95 255 0 0
8.42126 -2.73446 -43.8733 255 0 0
8.42126 -2.73446 -43.7967 255 0 0
8.42126 -2.73446 -43.72 255 0 0
8.42126 -2.73446 -43.6433 255 0 0
8.42126 -2.73446 -43.5667 255 0 0
8.42126 -2.73446 -43.49 255 0 0
8.42126 -2.73446 -43.4133 255 0 0
8.42126 -2.73446 -43.3367 255 0 0
8.42126 -2.73446 -43.26 255 0 0
8.42126 -2.73446 -43.1833 255 0 0
8.42126 -2.73446 -43.1067 255 0 0
8.42126 -2.73446 -43.03 0 255 0
8.42126 -2.73446 -42.9533 255 0 0
8.42126 -2.73446 -42.8767 255 0 0
8.42126 -2.73446 -42.8 255 0 0
8.42126 -2.73446 -42.7233 255 0 0
8.42126 -2.73446 -42.6467 255 0 0
8.42126 -2.73446 -42.57 255 0 0
8.42126 -2.73446 -42.4933 255 0 0
8.42126 -2.73446 -42.4167 255 0 0
8.42126 -2.73446 -42.34 255 0 0
8.42126 -2.73446 -42.2633 255 0 0
8.42126 -2.73446 -42.1867 255 0 0
8.42126 -2.73446 -42.11 255 0 0
8.42126 -2.73446 -42.0333 255 0 0
8.42126 -2.73446 -41.9567 255 0 0
8.42126 -2.73446 -41.88 255 0 0
9.02428 -3.00295 -44.18 255 0 0
9.02428 -3.00295 -44.1033 255 0 0
9.02428 -3.00295 -44.0267 255 0 0
9.02428 -3.00295 -43.95 255 0 0
9.02428 -3.00295 -43.8733 255 0 0
9.02428 -3.00295 -43.7967 255 0 0
9.02428 -3.00295 -43.72 255 0 0
9.02428 -3.00295 -43.6433 255 0 0
9.02428 -3.00295 -43.5667 255 0 0
9.02428 -3.00295 -43.49 255 0 0
9.02428 -3.00295 -43.4133 255 0 0
9.02428 -3.00295 -43.3367 255 0 0
9.02428 -3.00295 -43.26 255 0 0
9.02428 -3.00295 -43.1833 255 0 0
9.02428 -3.00295 -43.1067 255 0 0
9.02428 -3.00295 -43.03 0 255 0
9.02428 -3.00295 -42.9533 255 0 0
9.02428 -3.00295 -42.8767 255 0 0
9.02428 -3.00295 -42.8 255 0 0
9.02428 -3.00295 -42.7233 255 0 0
9.02428 -3.00295 -42.6467 255 0 0
9.02428 -3.00295 -42.57 255 0 0
9.02428 -3.00295 -42.4933 255 0 0
9.02428 -3.00295 -42.4167 255 0 0
9.02428 -3.00295 -42.34 255 0 0
9.02428 -3.00295 -42.2633 255 0 0
9.02428 -3.00295 -42.1867 255 0 0
9.02428 -3.00295 -42.11 255 0 0
9.02428 -3.00295 -42.0333 255 0 0
9.02428 -3.00295 -41.9567 255 0 0
9.02428 -3.00295 -41.88 255 0 0
9.66995 -3.14019 -44.18 255 0 0
9.66995 -3.14019 -44.1033 255 0 0
9.66995 -3.14019 -44.0267 255 0 0
9.66995 -3.14019 -43.95 255 0 0
9.66995 -3.14019 -43.8733 255 0 0
9.66995 -3.14019 -43.7967 255 0 0
9.66995 -3.14019 -43.72 255 0 0
9.66995 -3.14019 -43.6433 255 0 0
9.66995 -3.14019 -43.5667 255 0 0
9.66995 -3.14019 -43.49 255 0 0
9.66995 -3.14019 -43.4133 255 0 0
9.66995 -3.14019 -43.3367 255 0 0
9.66995 -3.14019 -43.26 255 0 0
9.66995 -3.14019 -43.1833 255 0 0
9.66995 -3.14019 -43.1067 255 0 0
9.66995 -3.14019 -43.03 0 255 0
9.66995 -3.14019 -42.9533 255 0 0
9.66995 -3.14019 -42.8767 255 0 0
9.66995 -3.14019 -42.8 255 0 0
9.66995 -3.14019 -42.7233 255 0 0
9.66995 -3.14019 -42.6467 255 0 0
9.66995 -3.14019 -42.57 255 0 0
9.66995 -3.14019 -42.4933 255 0 0
9.66995 -3.14019 -42.4167 255 0 0
9.66995 -3.14019 -42.34 255 0 0
9.66995 -3.14019 -42.2633 255 0 0
9.66995 -3.14019 -42.1867 255 0 0
9.66995 -3.14019 -42.11 255 0 0
9.66995 -3.14019 -42.0333 255 0 0
9.66995 -3.14019 -41.9567 255 0 0
9.66995 -3.14019 -41.88 255 0 0
10.33 -3.14019 -44.18 255 0 0
10.33 -3.14019 -44.1033 255 0 0
10.33 -3.14019 -44.0267 255 0 0
10.33 -3.14019 -43.95 255 0 0
10.33 -3.14019 -43.8733 255 0 0
10.33 -3.14019 -43.7967 255 0 0
10.33 -3.14019 -43.72 255 0 0
10.33 -3.14019 -43.6433 255 0 0
10.33 -3.14019 -43.5667 255 0 0
10.33 -3.14019 -43.49 255 0 0
10.33 -3.14019 -43.4133 255 0 0
10.33 -3.14019 -43.3367 255 0 0
10.33 -3.14019 -43.26 255 0 0
10.33 -3.14019 -43.1833 255 0 0
10.33 -3.14019 -43.1067 255 0 0
10.33 -3.14019 -43.03 0 255 0
10.33 -3.14019 -42.9533 255 0 0
10.33 -3.14019 -42.8767 255 0 0
10.33 -3.14019 -42.8 255 0 0
10.33 -3.14019 -42.7233 255 0 0
10.33 -3.14019 -42.6467 255 0 0
10.33 -3.14019 -42.57 255 0 0
10.33 -3.14019 -42.4933 255 0 0
10.33 -3.14019 -42.4167 255 0 0
10.33 -3.14019 -42.34 255 0 0
10.33 -3.14019 -42.2633 255 0 0
10.33 -3.14019 -42.1867 255 0 0
10.33 -3.14019 -42.11 255 0 0
10.33 -3.14019 -42.0333 255 0 0
10.33 -3.14019 -41.9567 255 0 0
10.33 -3.14019 -41.88 255 0 0
10.9757 -3.00295 -44.18 255 0 0
10.9757 -3.00295 -44.1033 255 0 0
10.9757 -3.00295 -44.0267 255 0 0
10.9757 -3.00295 -43.95 255 0 0
10.9757 -3.00295 -43.8733 255 0 0
10.9757 -3.00295 -43.7967 255 0 0
10.9757 -3.00295 -43.72 255 0 0
10.9757 -3.00295 -43.6433 255 0 0
10.9757 -3.00295 -43.5667 255 0 0
10.9757 -3.00295 -43.49 255 0 0
10.9757 -3.00295 -43.4133 255 0 0
10.9757 -3.00295 -43.3367 255 0 0
10.9757 -3.00295 -43.26 255 0 0
10.9757 -3.00295 -43.1833 255 0 0
10.9757 -3.00295 -43.1067 255 0 0
10.9757 -3.00295 -43.03 0 255 0
10.9757 -3.00295 -42.9533 255 0 0
10.9757 -3.00295 -42.8767 255 0 0
10.9757 -3.00295 -42.8 255 0 0
10.9757 -3.00295 -42.7233 255 0 0
10.9757 -3.00295 -42.6467 255 0 0
10.9757 -3.00295 -42.57 255 0 0
10.9757 -3.00295 -42.4933 255 0 0
10.9757 -3.00295 -42.4167 255 0 0
10.9757 -3.00295 -42.34 255 0 0
10.9757 -3.00295 -42.2633 255 0 0
10.9757 -3.00295 -42.1867 255 0 0
10.9757 -3.00295 -42.11 255 0 0
10.9757 -3.00295 -42.0333 255 0 0
10.9757 -3.00295 -41.9567 255 0 0
10.9757 -3.00295 -41.88 255 0 0
11.5787 -2.73446 -44.18 255 0 0
11.5787 -2.73446 -44.1033 255 0 0
11.5787 -2.73446 -44.0267 255 0 0
11.5787 -2.73446 -43.95 255 0 0
11.5787 -2.73446 -43.8733 255 0 0
11.5787 -2.73446 -43.7967 255 0 0
11.5787 -2.73446 -43.72 255 0 0
11.5787 -2.73446 -43.6433 255 0 0
11.5787 -2.73446 -43.5667 255 0 0
11.5787 -2.73446 -43.49 255 0 0
11.5787 -2.73446 -43.4133 255 0 0
11.5787 -2.73446 -43.3367 255 0 0
11.5787 -2.73446 -43.26 255 0 0
11.5787 -2.73446 -43.1833 255 0 0
11.5787 -2.73446 -43.1067 255 0 0
11.5787 -2.73446 -43.03 0 255 0
11.5787 -2.73446 -42.9533 255 0 0
11.5787 -2.73446 -42.8767 255 0 0
11.5787 -2.73446 -42.8 255 0 0
11.5787 -2.73446 -42.7233 255 0 0
11.5787 -2.73446 -42.6467 255 0 0
11.5787 -2.73446 -42.57 255 0 0
11.5787 -2.73446 -42.4933 255 0 0
11.5787 -2.73446 -42.4167 255 0 0
11.5787 -2.73446 -42.34 255 0 0
11.5787 -2.73446 -42.2633 255 0 0
11.5787 -2.73446 -42.1867 255 0 0
11.5787 -2.73446 -42.11 255 0 0
11.5787 -2.73446 -42.0333 255 0 0
11.5787 -2.73446 -41.9567 255 0 0
11.5787 -2.73446 -41.88 255 0 0
12.1128 -2.34647 -44.18 255 0 0
12.1128 -2.34647 -44.1033 255 0 0
12.1128 -2.34647 -44.0267 255 0 0
12.1128 -2.34647 -43.95 255 0 0
12.1128 -2.34647 -43.8733 255 0 0
12.1128 -2.34647 -43.7967 255 0 0
12.1128 -2.34647 -43.72 255 0 0
12.1128 -2.34647 -43.6433 255 0 0
12.1128 -2.34647 -43.5667 255 0 0
12.1128 -2.34647 -43.49 255 0 0
12.1128 -2.34647 -43.4133 255 0 0
12.1128 -2.34647 -43.3367 255 0 0
12.1128 -2.34647 -43.26 255 0 0
12.1128 -2.34647 -43.1833 255 0 0
12.1128 -2.34647 -43.1067 255 0 0
12.1128 -2.34647 -43.03 0 255 0
12.1128 -2.34647 -42.9533 255 0 0
12.1128 -2.34647 -42.8767 255 0 0
12.1128 -2.34647 -42.8 255 0 0
12.1128 -2.34647 -42.7233 255 0 0
12.1128 -2.34647 -42.6467 255 0 0
12.1128 -2.34647 -42.57 255 0 0
12.1128 -2.34647 -42.4933 255 0 0
12.1128 -2.34647 -42.4167 255 0 0
12.1128 -2.34647 -42.34 255 0 0
12.1128 -2.34647 -42.2633 255 0 0
12.1128 -2.34647 -42.1867 255 0 0
12.1128 -2.34647 -42.11 255 0 0
12.1128 -2.34647 -42.0333 255 0 0
12.1128 -2.34647 -41.9567 255 0 0
12.1128 -2.34647 -41.88 255 0 0
12.5545 -1.85592 -44.18 255 0 0
12.5545 -1.85592 -44.1033 255 0 0
12.5545 -1.85592 -44.0267 255 0 0
12.5545 -1.85592 -43.95 255 0 0
12.5545 -1.85592 -43.8733 255 0 0
12.5545 -1.85592 -43.7967 255 0 0
12.5545 -1.85592 -43.72 255 0 0
12.5545 -1.85592 -43.6433 255 0 0
12.5545 -1.85592 -43.5667 255 0 0
12.5545 -1.85592 -43.49 255 0 0
12.5545 -1.85592 -43.4133 255 0 0
12.5545 -1.85592 -43.3367 255 0 0
12.5545 -1.85592 -43.26 255 0 0
12.5545 -1.85592 -43.1833 255 0 0
12.5545 -1.85592 -43.1067 255 0 0
12.5545 -1.85592 -43.03 0 255 0
12.5545 -1.85592 -42.9533 255 0 0
12.5545 -1.85592 -42.8767 255 0 0
12.5545 -1.85592 -42.8 255 0 0
12.5545 -1.85592 -42.7233 255 0 0
12.5545 -1.85592 -42.6467 255 0 0
12.5545 -1.85592 -42.57 255 0 0
12.5545 -1.85592 -42.4933 255 0 0
12.5545 -1.85592 -42.4167 255 0 0
12.5545 -1.85592 -42.34 255 0 0
12.5545 -1.85592 -42.2633 255 0 0
12.5545 -1.85592 -42.1867 255 0 0
12.5545 -1.85592 -42.11 255 0 0
12.5545 -1.85592 -42.0333 255 0 0
12.5545 -1.85592 -41.9567 255 0 0
12.5545 -1.85592 -41.88 255 0 0
12.8845 -1.28427 -44.18 255 0 0
12.8845 -1.28427 -44.1033 255 0 0
12.8845 -1.28427 -44.0267 255 0 0
12.8845 -1.28427 -43.95 255 0 0
12.8845 -1.28427 -43.8733 255 0 0
12.8845 -1.28427 -43.7967 255 0 0
12.8845 -1.28427 -43.72 255 0 0
12.8845 -1.28427 -43.6433 255 0 0
12.8845 -1.28427 -43.5667 255 0 0
12.8845 -1.28427 -43.49 255 0 0
12.8845 -1.28427 -43.4133 255 0 0
12.8845 -1.28427 -43.3367 255 0 0
12.8845 -1.28427 -43.26 255 0 0
12.8845 -1.28427 -43.1833 255 0 0
12.8845 -1.28427 -43.1067 255 0 0
12.8845 -1.28427 -43.03 0 255 0
12.8845 -1.28427 -42.9533 255 0 0
12.8845 -1.28427 -42.8767 255 0 0
12.8845 -1.28427 -42.8 255 0 0
12.8845 -1.28427 -42.7233 255 0 0
12.8845 -1.28427 -42.6467 255 0 0
12.8845 -1.28427 -42.57 255 0 0
12.8845 -1.28427 -42.4933 255 0 0
12.8845 -1.28427 -42.4167 255 0 0
12.8845 -1.28427 -42.34 255 0 0
12.8845 -1.28427 -42.2633 255 0 0
12.8845 -1.28427 -42.1867 255 0 0
12.8845 -1.28427 -42.11 255 0 0
12.8845 -1.28427 -42.0333 255 0 0
12.8845 -1.28427 -41.9567 255 0 0
12.8845 -1.28427 -41.88 255 0 0
13.0885 -0.656478 -44.18 255 0 0
13.0885 -0.656478 -44.1033 255 0 0
13.0885 -0.656478 -44.0267 255 0 0
13.0885 -0.656478 -43.95 255 0 0
13.0885 -0.656478 -43.8733 255 0 0
13.0885 -0.656478 -43.7967 255 0 0
13.0885 -0.656478 -43.72 255 0 0
13.0885 -0.656478 -43.6433 255 0 0
13.0885 -0.656478 -43.5667 255 0 0
13.0885 -0.656478 -43.49 255 0 0
13.0885 -0.656478 -43.4133 255 0 0
13.0885 -0.656478 -43.3367 255 0 0
13.0885 -0.656478 -43.26 255 0 0
13.0885 -0.656478 -43.1833 255 0 0
13.0885 -0.656478 -43.1067 255 0 0
13.0885 -0.656478 -43.03 0 255 0
13.0885 -0.656478 -42.9533 255 0 0
13.0885 -0.656478 -42.8767 255 0 0
13.0885 -0.656478 -42.8 255 0 0
13.0885 -0.656478 -42.7233 255 0 0
13.0885 -0.656478 -42.6467 255 0 0
13.0885 -0.656478 -42.57 255 0 0
13.0885 -0.656478 -42.4933 255 0 0
13.0885 -0.656478 -42.4167 255 0 0
13.0885 -0.656478 -42.34 255 0 0
13.0885 -0.656478 -42.2633 255 0 0
13.0885 -0.656478 -42.1867 255 0 0
13.0885 -0.656478 -42.11 255 0 0
13.0885 -0.656478 -42.0333 255 0 0
13.0885 -0.656478 -41.9567 255 0 0
13.0885 -0.656478 -41.88 255 0 0
13.1575 1.8563e-12 -44.18 255 0 0
13.1575 1.8563e-12 -44.1033 255 0 0
13.1575 1.8563e-12 -44.0267 255 0 0
13.1575 1.8563e-12 -43.95 255 0 0
13.1575 1.8563e-12 -43.8733 255 0 0
13.1575 1.8563e-12 -43.7967 255 0 0
13.1575 1.8563e-12 -43.72 255 0 0
13.1575 1.8563e-12 -43.6433 255 0 0
13.1575 1.8563e-12 -43.5667 255 0 0
13.1575 1.8563e-12 -43.49 255 0 0
13.1575 1.8563e-12 -43.4133 255 0 0
13.1575 1.8563e-12 -43.3367 255 0 0
13.1575 1.8563e-12 -43.26 255 0 0
13.1575 1.8563e-12 -43.1833 255 0 0
13.1575 1.8563e-12 -43.1067 255 0 0
13.1575 1.8563e-12 -43.03 0 255 0
13.1575 1.8563e-12 -42.9533 255 0 0
13.1575 1.8563e-12 -42.8767 255 0 0
13.1575 1.8563e-12 -42.8 255 0 0
13.1575 1.8563e-12 -42.7233 255 0 0
13.1575 1.8563e-12 -42.6467 255 0 0
13.1575 1.8563e-12 -42.57 255 0 0
13.1575 1.8563e-12 -42.4933 255 0 0
13.1575 1.8563e-12 -42.4167 255 0 0
13.1575 1.8563e-12 -42.34 255 0 0
13.1575 1.8563e-12 -42.2633 255 0 0
13.1575 1.8563e-12 -42.1867 255 0 0
13.1575 1.8563e-12 -42.11 255 0 0
13.1575 1.8563e-12 -42.0333 255 0 0
13.1575 1.8563e-12 -41.9567 255 0 0
13.1575 1.8563e-12 -41.88 255 0 0
13.0885 0.656478 -44.18 255 0 0
13.0885 0.656478 -44.1033 255 0 0
13.0885 0.656478 -44.0267 255 0 0
13.0885 0.656478 -43.95 255 0 0
13.0885 0.656478 -43.8733 255 0 0
13.0885 0.656478 -43.7967 255 0 0
13.0885 0.656478 -43.72 255 0 0
13.0885 0.656478 -43.6433 255 0 0
13.0885 0.656478 -43.5667 255 0 0
13.0885 0.656478 -43.49 255 0 0
13.0885 0.656478 -43.4133 255 0 0
13.0885 0.656478 -43.3367 255 0 0
13.0885 0.656478 -43.26 255 0 0
13.0885 0.656478 -43.1833 255 0 0
13.0885 0.656478 -43.1067 255 0 0
13.0885 0.656478 -43.03 0 255 0
13.0885 0.656478 -42.9533 255 0 0
13.0885 0.656478 -42.8767 255 0 0
13.0885 0.656478 -42.8 255 0 0
13.0885 0.656478 -42.7233 255 0 0
13.0885 0.656478 -42.6467 255 0 0
13.0885 0.656478 -42.57 255 0 0
13.0885 0.656478 -42.4933 255 0 0
13.0885 0.656478 -42.4167 255 0 0
13.0885 0.656478 -42.34 255 0 0
13.0885 0.656478 -42.2633 255 0 0
13.0885 0.656478 -42.1867 255 0 0
13.0885 0.656478 -42.11 255 0 0
13.0885 0.656478 -42.0333 255 0 0
13.0885 0.656478 -41.9567 255 0 0
13.0885 0.656478 -41.88 255 0 0
12.8845 1.28427 -44.18 255 0 0
12.8845 1.28427 -44.1033 255 0 0
12.8845 1.28427 -44.0267 255 0 0
12.8845 1.28427 -43.95 255 0 0
12.8845 1.28427 -43.8733 255 0 0
12.8845 1.28427 -43.7967 255 0 0
12.8845 1.28427 -43.72 255 0 0
12.8845 1.28427 -43.6433 255 0 0
12.8845 1.28427 -43.5667 255 0 0
12.8845 1.28427 -43.49 255 0 0
12.8845 1.28427 -43.4133 255 0 0
12.8845 1.28427 -43.3367 255 0 0
12.8845 1.28427 -43.26 255 0 0
12.8845 1.28427 -43.1833 255 0 0
12.8845 1.28427 -43.1067 255 0 0
12.8845 1.28427 -43.03 0 255 0
12.8845 1.28427 -42.9533 255 0 0
12.8845 1.28427 -42.8767 255 0 0
12.8845 1.28427 -42.8 255 0 0
12.8845 1.28427 -42.7233 255 0 0
12.8845 1.28427 -42.6467 255 0 0
12.8845 1.28427 -42.57 255 0 0
12.8845 1.28427 -42.4933 255 0 0
12.8845 1.28427 -42.4167 255 0 0
12.8845 1.28427 -42.34 255 0 0
12.8845 1.28427 -42.2633 255 0 0
12.8845 1.28427 -42.1867 255 0 0
12.8845 1.28427 -42.11 255 0 0
12.8845 1.28427 -42.0333 255 0 0
12.8845 1.28427 -41.9567 255 0 0
12.8845 1.28427 -41.88 255 0 0
12.5545 1.85592 -44.18 255 0 0
12.5545 1.85592 -44.1033 255 0 0
12.5545 1.85592 -44.0267 255 0 0
12.5545 1.85592 -43.95 255 0 0
12.5545 1.85592 -43.8733 255 0 0
12.5545 1.85592 -43.7967 255 0 0
12.5545 1.85592 -43.72 255 0 0
12.5545 1.85592 -43.6433 255 0 0
12.5545 1.85592 -43.5667 255 0 0
12.5545 1.85592 -43.49 255 0 0
12.5545 1.85592 -43.4133 255 0 0
12.5545 1.85592 -43.3367 255 0 0
12.5545 1.85592 -43.26 255 0 0
12.5545 1.85592 -43.1833 255 0 0
12.5545 1.85592 -43.1067 255 0 0
12.5545 1.85592 -43.03 0 255 0
12.5545 1.85592 -42.9533 255 0 0
12.5545 1.85592 -42.8767 255 0 0
12.5545 1.85592 -42.8 255 0 0
12.5545 1.85592 -42.7233 255 0 0
12.5545 1.85592 -42.6467 255 0 0
12.5545 1.85592 -42.57 255 0 0
12.5545 1.85592 -42.4933 255 0 0
12.5545 1.85592 -42.4167 255 0 0
12.5545 1.85592 -42.34 255 0 0
12.5545 1.85592 -42.2633 255 0 0
12.5545 1.85592 -42.1867 255 0 0
12.5545 1.85592 -42.11 255 0 0
12.5545 1.85592 -42.0333 255 0 0
12.5545 1.85592 -41.9567 255 0 0
12.5545 1.85592 -41.88 255 0 0
12.1128 2.34647 -44.18 255 0 0
12.1128 2.34647 -44.1033 255 0 0
12.1128 2.34647 -44.0267 255 0 0
12.1128 2.34647 -43.95 255 0 0
12.1128 2.34647 -43.8733 255 0 0
12.1128 2.34647 -43.7967 255 0 0
12.1128 2.34647 -43.72 255 0 0
12.1128 2.34647 -43.6433 255 0 0
12.1128 2.34647 -43.5667 255 0 0
12.1128 2.34647 -43.49 255 0 0
12.1128 2.34647 -43.4133 255 0 0
12.1128 2.34647 -43.3367 255 0 0
12.1128 2.34647 -43.26 255 0 0
12.1128 2.34647 -43.1833 255 0 0
12.1128 2.34647 -43.1067 255 0 0
12.1128 2.34647 -43.03 0 255 0
12.1128 2.34647 -42.9533 255 0 0
12.1128 2.34647 -42.8767 255 0 0
12.1128 2.34647 -42.8 255 0 0
12.1128 2.34647 -42.7233 255 0 0
12.1128 2.34647 -42.6467 255 0 0
12.1128 2.34647 -42.57 255 0 0
12.1128 2.34647 -42.4933 255 0 0
12.1128 2.34647 -42.4167 255 0 0
12.1128 2.34647 -42.34 255 0 0
12.1128 2.34647 -42.2633 255 0 0
12.1128 2.34647 -42.1867 255 0 0
12.1128 2.34647 -42.11 255 0 0
12.1128 2.34647 -42.0333 255 0 0
12.1128 2.34647 -41.9567 255 0 0
12.1128 2.34647 -41.88 255 0 0
11.5787 2.73446 -44.18 255 0 0
11.5787 2.73446 -44.1033 255 0 0
11.5787 2.73446 -44.0267 255 0 0
11.5787 2.73446 -43.95 255 0 0
11.5787 2.73446 -43.8733 255 0 0
11.5787 2.73446 -43.7967 255 0 0
11.5787 2.73446 -43.72 255 0 0
11.5787 2.73446 -43.6433 255 0 0
11.5787 2.73446 -43.5667 255 0 0
11.5787 2.73446 -43.49 255 0 0
11.5787 2.73446 -43.4133 255 0 0
11.5787 2.73446 -43.3367 255 0 0
11.5787 2.73446 -43.26 255 0 0
11.5787 2.73446 -43.1833 255 0 0
11.5787 2.73446 -43.1067 255 0 0
11.5787 2.73446 -43.03 0 255 0
11.5787 2.73446 -42.9533 255 0 0
11.5787 2.73446 -42.8767 255 0 0
11.5787 2.73446 -42.8 255 0 0
11.5787 2.73446 -42.7233 255 0 0
11.5787 2.73446 -42.6467 255 0 0
11.5787 2.73446 -42.57 255 0 0
11.5787 2.73446 -42.4933 255 0 0
11.5787 2.73446 -42.4167 255 0 0
11.5787 2.73446 -42.34 255 0 0
11.5787 2.73446 -42.2633 255 0 0
11.5787 2.73446 -42.1867 255 0 0
11.5787 2.73446 -42.11 255 0 0
11.5787 2.73446 -42.0333 255 0 0
11.5787 2.73446 -41.9567 255 0 0
11.5787 2.73446 -41.88 255 0 0
10.9757 3.00295 -44.18 255 0 0
10.9757 3.00295 -44.1033 255 0 0
10.9757 3.00295 -44.0267 255 0 0
10.9757 3.00295 -43.95 255 0 0
10.9757 3.00295 -43.8733 255 0 0
10.9757 3.00295 -43.7967 255 0 0
10.9757 3.00295 -43.72 255 0 0
10.9757 3.00295 -43.6433 255 0 0
10.9757 3.00295 -43.5667 255 0 0
10.9757 3.00295 -43.49 255 0 0
10.9757 3.00295 -43.4133 255 0 0
10.9757 3.00295 -43.3367 255 0 0
10.9757 3.00295 -43.26 255 0 0
10.9757 3.00295 -43.1833 255 0 0
10.9757 3.00295 -43.1067 255 0 0
10.9757 3.00295 -43.03 0 255 0
10.9757 3.00295 -42.9533 255 0 0
10.9757 3.00295 -42.8767 255 0 0
10.9757 3.00295 -42.8 255 0 0
10.9757 3.00295 -42.7233 255 0 0
10.9757 3.00295 -42.6467 255 0 0
10.9757 3.00295 -42.57 255 0 0
10.9757 3.00295 -42.4933 255 0 0
10.9757 3.00295 -42.4167 255 0 0
10.9757 3.00295 -42.34 255 0 0
10.9757 3.00295 -42.2633 255 0 0
10.9757 3.00295 -42.1867 255 0 0
10.9757 3.00295 -42.11 255 0 0
10.9757 3.00295 -42.0333 255 0 0
10.9757 3.00295 -41.9567 255 0 0
10.9757 3.00295 -41.88 255 0 0
10.33 3.14019 -44.18 255 0 0
10.33 3.14019 -44.1033 255 0 0
10.33 3.14019 -44.0267 255 0 0
10.33 3.14019 -43.95 255 0 0
10.33 3.14019 -43.8733 255 0 0
10.33 3.14019 -43.7967 255 0 0
10.33 3.14019 -43.72 255 0 0
10.33 3.14019 -43.6433 255 0 0
10.33 3.14019 -43.5667 255 0 0
10.33 3.14019 -43.49 255 0 0
10.33 3.14019 -43.4133 255 0 0
10.33 3.14019 -43.3367 255 0 0
10.33 3.14019 -43.26 255 0 0
10.33 3.14019 -43.1833 255 0 0
10.33 3.14019 -43.1067 255 0 0
10.33 3.14019 -43.03 0 255 0
10.33 3.14019 -42.9533 255 0 0
10.33 3.14019 -42.8767 255 0 0
10.33 3.14019 -42.8 255 0 0
10.33 3.14019 -42.7233 255 0 0
10.33 3.14019 -42.6467 255 0 0
10.33 3.14019 -42.57 255 0 0
10.33 3.14019 -42.4933 255 0 0
10.33 3.14019 -42.4167 255 0 0
10.33 3.14019 -42.34 255 0 0
10.33 3.14019 -42.2633 255 0 0
10.33 3.14019 -42.1867 255 0 0
10.33 3.14019 -42.11 255 0 0
10.33 3.14019 -42.0333 255 0 0
10.33 3.14019 -41.9567 255 0 0
10.33 3.14019 -41.88 255 0 0
9.66995 3.14019 -44.18 255 0 0
9.66995 3.14019 -44.1033 255 0 0
9.66995 3.14019 -44.0267 255 0 0
9.66995 3.14019 -43.95 255 0 0
9.66995 3.14019 -43.8733 255 0 0
9.66995 3.14019 -43.7967 255 0 0
9.66995 3.14019 -43.72 255 0 0
9.66995 3.14019 -43.6433 255 0 0
9.66995 3.14019 -43.5667 255 0 0
9.66995 3.14019 -43.49 255 0 0
9.66995 3.14019 -43.4133 255 0 0
9.66995 3.14019 -43.3367 255 0 0
9.66995 3.14019 -43.26 255 0 0
9.66995 3.14019 -43.1833 255 0 0
9.66995 3.14019 -43.1067 255 0 0
9.66995 3.14019 -43.03 0 255 0
9.66995 3.14019 -42.9533 255 0 0
9.66995 3.14019 -42.8767 255 0 0
9.66995 3.14019 -42.8 255 0 0
9.66995 3.14019 -42.7233 255 0 0
9.66995 3.14019 -42.6467 255 0 0
9.66995 3.14019 -42.57 255 0 0
9.66995 3.14019 -42.4933 255 0 0
9.66995 3.14019 -42.4167 255 0 0
9.66995 3.14019 -42.34 255 0 0
9.66995 3.14019 -42.2633 255 0 0
9.66995 3.14019 -42.1867 255 0 0
9.66995 3.14019 -42.11 255 0 0
9.66995 3.14019 -42.0333 255 0 0
9.66995 3.14019 -41.9567 255 0 0
9.66995 3.14019 -41.88 255 0 0
9.02428 3.00295 -44.18 255 0 0
9.02428 3.00295 -44.1033 255 0 0
9.02428 3.00295 -44.0267 255 0 0
9.02428 3.00295 -43.95 255 0 0
9.02428 3.00295 -43.8733 255 0 0
9.02428 3.00295 -43.7967 255 0 0
9.02428 3.00295 -43.72 255 0 0
9.02428 3.00295 -43.6433 255 0 0
9.02428 3.00295 -43.5667 255 0 0
9.02428 3.00295 -43.49 255 0 0
9.02428 3.00295 -43.4133 255 0 0
9.02428 3.00295 -43.3367 255 0 0
9.02428 3.00295 -43.26 255 0 0
9.02428 3.00295 -43.1833 255 0 0
9.02428 3.00295 -43.1067 255 0 0
9.02428 3.00295 -43.03 0 255 0
9.02428 3.00295 -42.9533 255 0 0
9.02428 3.00295 -42.8767 255 0 0
9.02428 3.00295 -42.8 255 0 0
9.02428 3.00295 -42.7233 255 0 0
9.02428 3.00295 -42.6467 255 0 0
9.02428 3.00295 -42.57 255 0 0
9.02428 3.00295 -42.4933 255 0 0
9.02428 3.00295 -42.4167 255 0 0
9.02428 3.00295 -42.34 255 0 0
9.02428 3.00295 -42.2633 255 0 0
9.02428 3.00295 -42.1867 255 0 0
9.02428 3.00295 -42.11 255 0 0
9.02428 3.00295 -42.0333 255 0 0
9.02428 3.00295 -41.9567 255 0 0
9.02428 3.00295 -41.88 255 0 0
8.42126 2.73446 -44.18 255 0 0
8.42126 2.73446 -44.1033 255 0 0
8.42126 2.73446 -44.0267 255 0 0
8.42126 2.73446 -43.95 255 0 0
8.42126 2.73446 -43.8733 255 0 0
8.42126 2.73446 -43.7967 255 0 0
8.42126 2.73446 -43.72 255 0 0
8.42126 2.73446 -43.6433 255 0 0
8.42126 2.73446 -43.5667 255 0 0
8.42126 2.73446 -43.49 255 0 0
8.42126 2.73446 -43.4133 255 0 0
8.42126 2.73446 -43.3367 255 0 0
8.42126 2.73446 -43.26 255 0 0
8.42126 2.73446 -43.1833 255 0 0
8.42126 2.73446 -43.1067 255 0 0
8.42126 2.73446 -43.03 0 255 0
8.42126 2.73446 -42.9533 255 0 0
8.42126 2.73446 -42.8767 255 0 0
8.42126 2.73446 -42.8 255 0 0
8.42126 2.73446 -42.7233 255 0 0
8.42126 2.73446 -42.6467 255 0 0
8.42126 2.73446 -42.57 255 0 0
8.42126 2.73446 -42.4933 255 0 0
8.42126 2.73446 -42.4167 255 0 0
8.42126 2.73446 -42.34 255 0 0
8.42126 2.73446 -42.2633 255 0 0
8.42126 2.73446 -42.1867 255 0 0
8.42126 2.73446 -42.11 255 0 0
8.42126 2.73446 -42.0333 255 0 0
8.42126 2.73446 -41.9567 255 0 0
8.42126 2.73446 -41.88 255 0 0
7.88723 2.34647 -44.18 255 0 0
7.88723 2.34647 -44.1033 255 0 0
7.88723 2.34647 -44.0267 255 0 0
7.88723 2.34647 -43.95 255 0 0
7.88723 2.34647 -43.8733 255 0 0
7.88723 2.34647 -43.7967 255 0 0
7.88723 2.34647 -43.72 255 0 0
7.88723 2.34647 -43.6433 255 0 0
7.88723 2.34647 -43.5667 255 0 0
7.88723 2.34647 -43.49 255 0 0
7.88723 2.34647 -43.4133 255 0 0
7.88723 2.34647 -43.3367 255 0 0
7.88723 2.34647 -43.26 255 0 0
7.88723 2.34647 -43.1833 255 0 0
7.88723 2.34647 -43.1067 255 0 0
7.88723 2.34647 -43.03 0 255 0
7.88723 2.34647 -42.9533 255 0 0
7.88723 2.34647 -42.8767 255 0 0
7.88723 2.34647 -42.8 255 0 0
7.88723 2.34647 -42.7233 255 0 0
7.88723 2.34647 -42.6467 255 0 0
7.88723 2.34647 -42.57 255 0 0
7.88723 2.34647 -42.4933 255 0 0
7.88723 2.34647 -42.4167 255 0 0
7.88723 2.34647 -42.34 255 0 0
7.88723 2.34647 -42.2633 255 0 0
7.88723 2.34647 -42.1867 255 0 0
7.88723 2.34647 -42.11 255 0 0
7.88723 2.34647 -42.0333 255 0 0
7.88723 2.34647 -41.9567 255 0 0
7.88723 2.34647 -41.88 255 0 0
7.44554 1.85592 -44.18 255 0 0
7.44554 1.85592 -44.1033 255 0 0
7.44554 1.85592 -44.0267 255 0 0
7.44554 1.85592 -43.95 255 0 0
7.44554 1.85592 -43.8733 255 0 0
7.44554 1.85592 -43.7967 255 0 0
7.44554 1.85592 -43.72 255 0 0
7.44554 1.85592 -43.6433 255 0 0
7.44554 1.85592 -43.5667 255 0 0
7.44554 1.85592 -43.49 255 0 0
7.44554 1.85592 -43.4133 255 0 0
7.44554 1.85592 -43.3367 255 0 0
7.44554 1.85592 -43.26 255 0 0
7.44554 1.85592 -43.1833 255 0 0
7.44554 1.85592 -43.1067 255 0 0
7.44554 1.85592 -43.03 0 255 0
7.44554 1.85592 -42.9533 255 0 0
7.44554 1.85592 -42.8767 255 0 0
7.44554 1.85592 -42.8 255 0 0
7.44554 1.85592 -42.7233 255 0 0
7.44554 1.85592 -42.6467 255 0 0
7.44554 1.85592 -42.57 255 0 0
7.44554 1.85592 -42.4933 255 0 0
7.44554 1.85592 -42.4167 255 0 0
7.44554 1.85592 -42.34 255 0 0
7.44554 1.85592 -42.2633 255 0 0
7.44554 1.85592 -42.1867 255 0 0
7.44554 1.85592 -42.11 255 0 0
7.44554 1.85592 -42.0333 255 0 0
7.44554 1.85592 -41.9567 255 0 0
7.44554 1.85592 -41.88 255 0 0
7.11549 1.28427 -44.18 255 0 0
7.11549 1.28427 -44.1033 255 0 0
7.11549 1.28427 -44.0267 255 0 0
7.11549 1.28427 -43.95 255 0 0
7.11549 1.28427 -43.8733 255 0 0
7.11549 1.28427 -43.7967 255 0 0
7.11549 1.28427 -43.72 255 0 0
7.11549 1.28427 -43.6433 255 0 0
7.11549 1.28427 -43.5667 255 0 0
7.11549 1.28427 -43.49 255 0 0
7.11549 1.28427 -43.4133 255 0 0
7.11549 1.28427 -43.3367 255 0 0
7.11549 1.28427 -43.26 255 0 0
7.11549 1.28427 -43.1833 255 0 0
7.11549 1.28427 -43.1067 255 0 0
7.11549 1.28427 -43.03 0 255 0
7.11549 1.28427 -42.9533 255 0 0
7.11549 1.28427 -42.8767 255 0 0
7.11549 1.28427 -42.8 255 0 0
7.11549 1.28427 -42.7233 255 0 0
7.11549 1.28427 -42.6467 255 0 0
7.11549 1.28427 -42.57 255 0 0
7.11549 1.28427 -42.4933 255 0 0
7.11549 1.28427 -42.4167 255 0 0
7.11549 1.28427 -42.34 255 0 0
7.11549 1.28427 -42.2633 255 0 0
7.11549 1.28427 -42.1867 255 0 0
7.11549 1.28427 -42.11 255 0 0
7.11549 1.28427 -42.0333 255 0 0
7.11549 1.28427 -41.9567 255 0 0
7.11549 1.28427 -41.88 255 0 0
6.91151 0.656478 -44.18 255 0 0
6.91151 0.656478 -44.1033 255 0 0
6.91151 0.656478 -44.0267 255 0 0
6.91151 0.656478 -43.95 255 0 0
6.91151 0.656478 -43.8733 255 0 0
6.91151 0.656478 -43.7967 255 0 0
6.91151 0.656478 -43.72 255 0 0
6.91151 0.656478 -43.6433 255 0 0
6.91151 0.656478 -43.5667 255 0 0
6.91151 0.656478 -43.49 255 0 0
6.91151 0.656478 -43.4133 255 0 0
6.91151 0.656478 -43.3367 255 0 0
6.91151 0.656478 -43.26 255 0 0
6.91151 0.656478 -43.1833 255 0 0
6.91151 0.656478 -43.1067 255 0 0
6.91151 0.656478 -43.03 0 255 0
6.91151 0.656478 -42.9533 255 0 0
6.91151 0.656478 -42.8767 255 0 0
6.91151 0.656478 -42.8 255 0 0
6.91151 0.656478 -42.7233 255 0 0
6.91151 0.656478 -42.6467 255 0 0
6.91151 0.656478 -42.57 255 0 0
6.91151 0.656478 -42.4933 255 0 0
6.91151 0.656478 -42.4167 255 0 0
6.91151 0.656478 -42.34 255 0 0
6.91151 0.656478 -42.2633 255 0 0
6.91151 0.656478 -42.1867 255 0 0
6.91151 0.656478 -42.11 255 0 0
6.91151 0.656478 -42.0333 255 0 0
6.91151 0.656478 -41.9567 255 0 0
6.91151 0.656478 -41.88 255 0 0
6.84251 1.85823e-12 -44.18 255 0 0
6.84251 1.85823e-12 -44.1033 255 0 0
6.84251 1.85823e-12 -44.0267 255 0 0
6.84251 1.85823e-12 -43.95 255 0 0
6.84251 1.85823e-12 -43.8733 255 0 0
6.84251 1.85823e-12 -43.7967 255 0 0
6.84251 1.85823e-12 -43.72 255 0 0
6.84251 1.85823e-12 -43.6433 255 0 0
6.84251 1.85823e-12 -43.5667 255 0 0
6.84251 1.85823e-12 -43.49 255 0 0
6.84251 1.85823e-12 -43.4133 255 0 0
6.84251 1.85823e-12 -43.3367 255 0 0
6.84251 1.85823e-12 -43.26 255 0 0
6.84251 1.85823e-12 -43.1833 255 0 0
6.84251 1.85823e-12 -43.1067 255 0 0
6.84251 1.85823e-12 -43.03 0 255 0
6.84251 1.85823e-12 -42.9533 255 0 0
6.84251 1.85823e-12 -42.8767 255 0 0
6.84251 1.85823e-12 -42.8 255 0 0
6.84251 1.85823e-12 -42.7233 255 0 0
6.84251 1.85823e-12 -42.6467 255 0 0
6.84251 1.85823e-12 -42.57 255 0 0
6.84251 1.85823e-12 -42.4933 255 0 0
6.84251 1.85823e-12 -42.4167 255 0 0
6.84251 1.85823e-12 -42.34 255 0 0
6.84251 1.85823e-12 -42.2633 255 0 0
6.84251 1.85823e-12 -42.1867 255 0 0
6.84251 1.85823e-12 -42.11 255 0 0
6.84251 1.85823e-12 -42.0333 255 0 0
6.84251 1.85823e-12 -41.9567 255 0 0
6.84251 1.85823e-12 -41.88 255 0 0
