ply
format ascii 1.0
element vertex 961
property float x
property float y
property float z
property uchar red
property uchar green
property uchar blue
end_header
-2.9366 2.12347e-12 -44.18 255 0 0
-2.9366 2.12347e-12 -44.1033 255 0 0
-2.9366 2.12347e-12 -44.0267 255 0 0
-2.9366 2.12347e-12 -43.95 255 0 0
-2.9366 2.12347e-12 -43.8733 255 0 0
-2.9366 2.12347e-12 -43.7967 255 0 0
-2.9366 2.12347e-12 -43.72 255 0 0
-2.9366 2.12347e-12 -43.6433 255 0 0
-2.9366 2.12347e-12 -43.5667 255 0 0
-2.9366 2.12347e-12 -43.49 255 0 0
-2.9366 2.12347e-12 -43.4133 255 0 0
-2.9366 2.12347e-12 -43.3367 255 0 0
-2.9366 2.12347e-12 -43.26 255 0 0
-2.9366 2.12347e-12 -43.1833 255 0 0
-2.9366 2.12347e-12 -43.1067 255 0 0
-2.9366 2.12347e-12 -43.03 0 255 0
-2.9366 2.12347e-12 -42.9533 255 0 0
-2.9366 2.12347e-12 -42.8767 255 0 0
-2.9366 2.12347e-12 -42.8 255 0 0
-2.9366 2.12347e-12 -42.7233 255 0 0
-2.9366 2.12347e-12 -42.6467 255 0 0
-2.9366 2.12347e-12 -42.57 255 0 0
-2.9366 2.12347e-12 -42.4933 255 0 0
-2.9366 2.12347e-12 -42.4167 255 0 0
-2.9366 2.12347e-12 -42.34 255 0 0
-2.9366 2.12347e-12 -42.2633 255 0 0
-2.9366 2.12347e-12 -42.1867 255 0 0
-2.9366 2.12347e-12 -42.11 255 0 0
-2.9366 2.12347e-12 -42.0333 255 0 0
-2.9366 2.12347e-12 -41.9567 255 0 0
-2.9366 2.12347e-12 -41.88 255 0 0
-2.6539 -2.68967 -44.18 255 0 0
-2.6539 -2.68967 -44.1033 255 0 0
-2.6539 -2.68967 -44.0267 255 0 0
-2.6539 -2.68967 -43.95 255 0 0
-2.6539 -2.68967 -43.8733 255 0 0
-2.6539 -2.68967 -43.7967 255 0 0
-2.6539 -2.68967 -43.72 255 0 0
-2.6539 -2.68967 -43.6433 255 0 0
-2.6539 -2.68967 -43.5667 255 0 0
-2.6539 -2.68967 -43.49 255 0 0
-2.6539 -2.68967 -43.4133 255 0 0
-2.6539 -2.68967 -43.3367 255 0 0
-2.6539 -2.68967 -43.26 255 0 0
-2.6539 -2.68967 -43.1833 255 0 0
-2.6539 -2.68967 -43.1067 255 0 0
-2.6539 -2.68967 -43.03 0 255 0
-2.6539 -2.68967 -42.9533 255 0 0
-2.6539 -2.68967 -42.8767 255 0 0
-2.6539 -2.68967 -42.8 255 0 0
-2.6539 -2.68967 -42.7233 255 0 0
-2.6539 -2.68967 -42.6467 255 0 0
-2.6539 -2.68967 -42.57 255 0 0
-2.6539 -2.68967 -42.4933 255 0 0
-2.6539 -2.68967 -42.4167 255 0 0
-2.6539 -2.68967 -42.34 255 0 0
-2.6539 -2.68967 -42.2633 255 0 0
-2.6539 -2.68967 -42.1867 255 0 0
-2.6539 -2.68967 -42.11 255 0 0
-2.6539 -2.68967 -42.0333 255 0 0
-2.6539 -2.68967 -41.9567 255 0 0
-2.6539 -2.68967 -41.88 255 0 0
-1.81817 -5.26179 -44.18 255 0 0
-1.81817 -5.26179 -44.1033 255 0 0
-1.81817 -5.26179 -44.0267 255 0 0
-1.81817 -5.26179 -43.95 255 0 0
-1.81817 -5.26179 -43.8733 255 0 0
-1.81817 -5.26179 -43.7967 255 0 0
-1.81817 -5.26179 -43.72 255 0 0
-1.81817 -5.26179 -43.6433 255 0 0
-1.81817 -5.26179 -43.5667 255 0 0
-1.81817 -5.26179 -43.49 255 0 0
-1.81817 -5.26179 -43.4133 255 0 0
-1.81817 -5.26179 -43.3367 255 0 0
-1.81817 -5.26179 -43.26 255 0 0
-1.81817 -5.26179 -43.1833 255 0 0
-1.81817 -5.26179 -43.1067 255 0 0
-1.81817 -5.26179 -43.03 0 255 0
-1.81817 -5.26179 -42.9533 255 0 0
-1.81817 -5.26179 -42.8767 255 0 0
-1.81817 -5.26179 -42.8 255 0 0
-1.81817 -5.26179 -42.7233 255 0 0
-1.81817 -5.26179 -42.6467 255 0 0
-1.81817 -5.26179 -42.57 255 0 0
-1.81817 -5.26179 -42.4933 255 0 0
-1.81817 -5.26179 -42.4167 255 0 0
-1.81817 -5.26179 -42.34 255 0 0
-1.81817 -5.26179 -42.2633 255 0 0
-1.81817 -5.26179 -42.1867 255 0 0
-1.81817 -5.26179 -42.11 255 0 0
-1.81817 -5.26179 -42.0333 255 0 0
-1.81817 -5.26179 -41.9567 255 0 0
-1.81817 -5.26179 -41.88 255 0 0
-0.465928 -7.60394 -44.18 255 0 0
-0.465928 -7.60394 -44.1033 255 0 0
-0.465928 -7.60394 -44.0267 255 0 0
-0.465928 -7.60394 -43.95 255 0 0
-0.465928 -7.60394 -43.8733 255 0 0
-0.465928 -7.60394 -43.7967 255 0 0
-0.465928 -7.60394 -43.72 255 0 0
-0.465928 -7.60394 -43.6433 255 0 0
-0.465928 -7.60394 -43.5667 255 0 0
-0.465928 -7.60394 -43.49 255 0 0
-0.465928 -7.60394 -43.4133 255 0 0
-0.465928 -7.60394 -43.3367 255 0 0
-0.465928 -7.60394 -43.26 255 0 0
-0.465928 -7.60394 -43.1833 255 0 0
-0.465928 -7.60394 -43.1067 255 0 0
-0.465928 -7.60394 -43.03 0 255 0
-0.465928 -7.60394 -42.9533 255 0 0
-0.465928 -7.60394 -42.8767 255 0 0
-0.465928 -7.60394 -42.8 255 0 0
-0.465928 -7.60394 -42.7233 255 0 0
-0.465928 -7.60394 -42.6467 255 0 0
-0.465928 -7.60394 -42.57 255 0 0
-0.465928 -7.60394 -42.4933 255 0 0
-0.465928 -7.60394 -42.4167 255 0 0
-0.465928 -7.60394 -42.34 255 0 0
-0.465928 -7.60394 -42.2633 255 0 0
-0.465928 -7.60394 -42.1867 255 0 0
-0.465928 -7.60394 -42.11 255 0 0
-0.465928 -7.60394 -42.0333 255 0 0
-0.465928 -7.60394 -41.9567 255 0 0
-0.465928 -7.60394 -41.88 255 0 0
1.34373 -9.61377 -44.18 255 0 0
1.34373 -9.61377 -44.1033 255 0 0
1.34373 -9.61377 -44.0267 255 0 0
1.34373 -9.61377 -43.95 255 0 0
1.34373 -9.61377 -43.8733 255 0 0
1.34373 -9.61377 -43.7967 255 0 0
1.34373 -9.61377 -43.72 255 0 0
1.34373 -9.61377 -43.6433 255 0 0
1.34373 -9.61377 -43.5667 255 0 0
1.34373 -9.61377 -43.49 255 0 0
1.34373 -9.61377 -43.4133 255 0 0
1.34373 -9.61377 -43.3367 255 0 0
1.34373 -9.61377 -43.26 255 0 0
1.34373 -9.61377 -43.1833 255 0 0
1.34373 -9.61377 -43.1067 255 0 0
1.34373 -9.61377 -43.03 0 255 0
1.34373 -9.61377 -42.9533 255 0 0
1.34373 -9.61377 -42.8767 255 0 0
1.34373 -9.61377 -42.8 255 0 0
1.34373 -9.61377 -42.7233 255 0 0
1.34373 -9.61377 -42.6467 255 0 0
1.34373 -9.61377 -42.57 255 0 0
1.34373 -9.61377 -42.4933 255 0 0
1.34373 -9.61377 -42.4167 255 0 0
1.34373 -9.61377 -42.34 255 0 0
1.34373 -9.61377 -42.2633 255 0 0
1.34373 -9.61377 -42.1867 255 0 0
1.34373 -9.61377 -42.11 255 0 0
1.34373 -9.61377 -42.0333 255 0 0
1.34373 -9.61377 -41.9567 255 0 0
1.34373 -9.61377 -41.88 255 0 0
3.5317 -11.2034 -44.18 255 0 0
3.5317 -11.2034 -44.1033 255 0 0
3.5317 -11.2034 -44.0267 255 0 0
3.5317 -11.2034 -43.95 255 0 0
3.5317 -11.2034 -43.8733 255 0 0
3.5317 -11.2034 -43.7967 255 0 0
3.5317 -11.2034 -43.72 255 0 0
3.5317 -11.2034 -43.6433 255 0 0
3.5317 -11.2034 -43.5667 255 0 0
3.5317 -11.2034 -43.49 255 0 0
3.5317 -11.2034 -43.4133 255 0 0
3.5317 -11.2034 -43.3367 255 0 0
3.5317 -11.2034 -43.26 255 0 0
3.5317 -11.2034 -43.1833 255 0 0
3.5317 -11.2034 -43.1067 255 0 0
3.5317 -11.2034 -43.03 0 255 0
3.5317 -11.2034 -42.9533 255 0 0
3.5317 -11.2034 -42.8767 255 0 0
3.5317 -11.2034 -42.8 255 0 0
3.5317 -11.2034 -42.7233 255 0 0
3.5317 -11.2034 -42.6467 255 0 0
3.5317 -11.2034 -42.57 255 0 0
3.5317 -11.2034 -42.4933 255 0 0
3.5317 -11.2034 -42.4167 255 0 0
3.5317 -11.2034 -42.34 255 0 0
3.5317 -11.2034 -42.2633 255 0 0
3.5317 -11.2034 -42.1867 255 0 0
3.5317 -11.2034 -42.11 255 0 0
3.5317 -11.2034 -42.0333 255 0 0
3.5317 -11.2034 -41.9567 255 0 0
3.5317 -11.2034 -41.88 255 0 0
6.00237 -12.3034 -44.18 255 0 0
6.00237 -12.3034 -44.1033 255 0 0
6.00237 -12.3034 -44.0267 255 0 0
6.00237 -12.3034 -43.95 255 0 0
6.00237 -12.3034 -43.8733 255 0 0
6.00237 -12.3034 -43.7967 255 0 0
6.00237 -12.3034 -43.72 255 0 0
6.00237 -12.3034 -43.6433 255 0 0
6.00237 -12.3034 -43.5667 255 0 0
6.00237 -12.3034 -43.49 255 0 0
6.00237 -12.3034 -43.4133 255 0 0
6.00237 -12.3034 -43.3367 255 0 0
6.00237 -12.3034 -43.26 255 0 0
6.00237 -12.3034 -43.1833 255 0 0
6.00237 -12.3034 -43.1067 255 0 0
6.00237 -12.3034 -43.03 0 255 0
6.00237 -12.3034 -42.9533 255 0 0
6.00237 -12.3034 -42.8767 255 0 0
6.00237 -12.3034 -42.8 255 0 0
6.00237 -12.3034 -42.7233 255 0 0
6.00237 -12.3034 -42.6467 255 0 0
6.00237 -12.3034 -42.57 255 0 0
6.00237 -12.3034 -42.4933 255 0 0
6.00237 -12.3034 -42.4167 255 0 0
6.00237 -12.3034 -42.34 255 0 0
6.00237 -12.3034 -42.2633 255 0 0
6.00237 -12.3034 -42.1867 255 0 0
6.00237 -12.3034 -42.11 255 0 0
6.00237 -12.3034 -42.0333 255 0 0
6.00237 -12.3034 -41.9567 255 0 0
6.00237 -12.3034 -41.88 255 0 0
8.64776 -12.8657 -44.18 255 0 0
8.64776 -12.8657 -44.1033 255 0 0
8.64776 -12.8657 -44.0267 255 0 0
8.64776 -12.8657 -43.95 255 0 0
8.64776 -12.8657 -43.8733 255 0 0
8.64776 -12.8657 -43.7967 255 0 0
8.64776 -12.8657 -43.72 255 0 0
8.64776 -12.8657 -43.6433 255 0 0
8.64776 -12.8657 -43.5667 255 0 0
8.64776 -12.8657 -43.49 255 0 0
8.64776 -12.8657 -43.4133 255 0 0
8.64776 -12.8657 -43.3367 255 0 0
8.64776 -12.8657 -43.26 255 0 0
8.64776 -12.8657 -43.1833 255 0 0
8.64776 -12.8657 -43.1067 255 0 0
8.64776 -12.8657 -43.03 0 255 0
8.64776 -12.8657 -42.9533 255 0 0
8.64776 -12.8657 -42.8767 255 0 0
8.64776 -12.8657 -42.8 255 0 0
8.64776 -12.8657 -42.7233 255 0 0
8.64776 -12.8657 -42.6467 255 0 0
8.64776 -12.8657 -42.57 255 0 0
8.64776 -12.8657 -42.4933 255 0 0
8.64776 -12.8657 -42.4167 255 0 0
8.64776 -12.8657 -42.34 255 0 0
8.64776 -12.8657 -42.2633 255 0 0
8.64776 -12.8657 -42.1867 255 0 0
8.64776 -12.8657 -42.11 255 0 0
8.64776 -12.8657 -42.0333 255 0 0
8.64776 -12.8657 -41.9567 255 0 0
8.64776 -12.8657 -41.88 255 0 0
11.3522 -12.8657 -44.18 255 0 0
11.3522 -12.8657 -44.1033 255 0 0
11.3522 -12.8657 -44.0267 255 0 0
11.3522 -12.8657 -43.95 255 0 0
11.3522 -12.8657 -43.8733 255 0 0
11.3522 -12.8657 -43.7967 255 0 0
11.3522 -12.8657 -43.72 255 0 0
11.3522 -12.8657 -43.6433 255 0 0
11.3522 -12.8657 -43.5667 255 0 0
11.3522 -12.8657 -43.49 255 0 0
11.3522 -12.8657 -43.4133 255 0 0
11.3522 -12.8657 -43.3367 255 0 0
11.3522 -12.8657 -43.26 255 0 0
11.3522 -12.8657 -43.1833 255 0 0
11.3522 -12.8657 -43.1067 255 0 0
11.3522 -12.8657 -43.03 0 255 0
11.3522 -12.8657 -42.9533 255 0 0
11.3522 -12.8657 -42.8767 255 0 0
11.3522 -12.8657 -42.8 255 0 0
11.3522 -12.8657 -42.7233 255 0 0
11.3522 -12.8657 -42.6467 255 0 0
11.3522 -12.8657 -42.57 255 0 0
11.3522 -12.8657 -42.4933 255 0 0
11.3522 -12.8657 -42.4167 255 0 0
11.3522 -12.8657 -42.34 255 0 0
11.3522 -12.8657 -42.2633 255 0 0
11.3522 -12.8657 -42.1867 255 0 0
11.3522 -12.8657 -42.11 255 0 0
11.3522 -12.8657 -42.0333 255 0 0
11.3522 -12.8657 -41.9567 255 0 0
11.3522 -12.8657 -41.88 255 0 0
13.9976 -12.3034 -44.18 255 0 0
13.9976 -12.3034 -44.1033 255 0 0
13.9976 -12.3034 -44.0267 255 0 0
13.9976 -12.3034 -43.95 255 0 0
13.9976 -12.3034 -43.8733 255 0 0
13.9976 -12.3034 -43.7967 255 0 0
13.9976 -12.3034 -43.72 255 0 0
13.9976 -12.3034 -43.6433 255 0 0
13.9976 -12.3034 -43.5667 255 0 0
13.9976 -12.3034 -43.49 255 0 0
13.9976 -12.3034 -43.4133 255 0 0
13.9976 -12.3034 -43.3367 255 0 0
13.9976 -12.3034 -43.26 255 0 0
13.9976 -12.3034 -43.1833 255 0 0
13.9976 -12.3034 -43.1067 255 0 0
13.9976 -12.3034 -43.03 0 255 0
13.9976 -12.3034 -42.9533 255 0 0
13.9976 -12.3034 -42.8767 255 0 0
13.9976 -12.3034 -42.8 255 0 0
13.9976 -12.3034 -42.7233 255 0 0
13.9976 -12.3034 -42.6467 255 0 0
13.9976 -12.3034 -42.57 255 0 0
13.9976 -12.3034 -42.4933 255 0 0
13.9976 -12.3034 -42.4167 255 0 0
13.9976 -12.3034 -42.34 255 0 0
13.9976 -12.3034 -42.2633 255 0 0
13.9976 -12.3034 -42.1867 255 0 0
13.9976 -12.3034 -42.11 255 0 0
13.9976 -12.3034 -42.0333 255 0 0
13.9976 -12.3034 -41.9567 255 0 0
13.9976 -12.3034 -41.88 255 0 0
16.4683 -11.2034 -44.18 255 0 0
16.4683 -11.2034 -44.1033 255 0 0
16.4683 -11.2034 -44.0267 255 0 0
16.4683 -11.2034 -43.95 255 0 0
16.4683 -11.2034 -43.8733 255 0 0
16.4683 -11.2034 -43.7967 255 0 0
16.4683 -11.2034 -43.72 255 0 0
16.4683 -11.2034 -43.6433 255 0 0
16.4683 -11.2034 -43.5667 255 0 0
16.4683 -11.2034 -43.49 255 0 0
16.4683 -11.2034 -43.4133 255 0 0
16.4683 -11.2034 -43.3367 255 0 0
16.4683 -11.2034 -43.26 255 0 0
16.4683 -11.2034 -43.1833 255 0 0
16.4683 -11.2034 -43.1067 255 0 0
16.4683 -11.2034 -43.03 0 255 0
16.4683 -11.2034 -42.9533 255 0 0
16.4683 -11.2034 -42.8767 255 0 0
16.4683 -11.2034 -42.8 255 0 0
16.4683 -11.2034 -42.7233 255 0 0
16.4683 -11.2034 -42.6467 255 0 0
16.4683 -11.2034 -42.57 255 0 0
16.4683 -11.2034 -42.4933 255 0 0
16.4683 -11.2034 -42.4167 255 0 0
16.4683 -11.2034 -42.34 255 0 0
16.4683 -11.2034 -42.2633 255 0 0
16.4683 -11.2034 -42.1867 255 0 0
16.4683 -11.2034 -42.11 255 0 0
16.4683 -11.2034 -42.0333 255 0 0
16.4683 -11.2034 -41.9567 255 0 0
16.4683 -11.2034 -41.88 255 0 0
18.6563 -9.61377 -44.18 255 0 0
18.6563 -9.61377 -44.1033 255 0 0
18.6563 -9.61377 -44.0267 255 0 0
18.6563 -9.61377 -43.95 255 0 0
18.6563 -9.61377 -43.8733 255 0 0
18.6563 -9.61377 -43.7967 255 0 0
18.6563 -9.61377 -43.72 255 0 0
18.6563 -9.61377 -43.6433 255 0 0
18.6563 -9.61377 -43.5667 255 0 0
18.6563 -9.61377 -43.49 255 0 0
18.6563 -9.61377 -43.4133 255 0 0
18.6563 -9.61377 -43.3367 255 0 0
18.6563 -9.61377 -43.26 255 0 0
18.6563 -9.61377 -43.1833 255 0 0
18.6563 -9.61377 -43.1067 255 0 0
18.6563 -9.61377 -43.03 0 255 0
18.6563 -9.61377 -42.9533 255 0 0
18.6563 -9.61377 -42.8767 255 0 0
18.6563 -9.61377 -42.8 255 0 0
18.6563 -9.61377 -42.7233 255 0 0
18.6563 -9.61377 -42.6467 255 0 0
18.6563 -9.61377 -42.57 255 0 0
18.6563 -9.61377 -42.4933 255 0 0
18.6563 -9.61377 -42.4167 255 0 0
18.6563 -9.61377 -42.34 255 0 0
18.6563 -9.61377 -42.2633 255 0 0
18.6563 -9.61377 -42.1867 255 0 0
18.6563 -9.61377 -42.11 255 0 0
18.6563 -9.61377 -42.0333 255 0 0
18.6563 -9.61377 -41.9567 255 0 0
18.6563 -9.61377 -41.88 255 0 0
20.4659 -7.60394 -44.18 255 0 0
20.4659 -7.60394 -44.1033 255 0 0
20.4659 -7.60394 -44.0267 255 0 0
20.4659 -7.60394 -43.95 255 0 0
20.4659 -7.60394 -43.8733 255 0 0
20.4659 -7.60394 -43.7967 255 0 0
20.4659 -7.60394 -43.72 255 0 0
20.4659 -7.60394 -43.6433 255 0 0
20.4659 -7.60394 -43.5667 255 0 0
20.4659 -7.60394 -43.49 255 0 0
20.4659 -7.60394 -43.4133 255 0 0
20.4659 -7.60394 -43.3367 255 0 0
20.4659 -7.60394 -43.26 255 0 0
20.4659 -7.60394 -43.1833 255 0 0
20.4659 -7.60394 -43.1067 255 0 0
20.4659 -7.60394 -43.03 0 255 0
20.4659 -7.60394 -42.9533 255 0 0
20.4659 -7.60394 -42.8767 255 0 0
20.4659 -7.60394 -42.8 255 0 0
20.4659 -7.60394 -42.7233 255 0 0
20.4659 -7.60394 -42.6467 255 0 0
20.4659 -7.60394 -42.57 255 0 0
20.4659 -7.60394 -42.4933 255 0 0
20.4659 -7.60394 -42.4167 255 0 0
20.4659 -7.60394 -42.34 255 0 0
20.4659 -7.60394 -42.2633 255 0 0
20.4659 -7.60394 -42.1867 255 0 0
20.4659 -7.60394 -42.11 255 0 0
20.4659 -7.60394 -42.0333 255 0 0
20.4659 -7.60394 -41.9567 255 0 0
20.4659 -7.60394 -41.88 255 0 0
21.8182 -5.26179 -44.18 255 0 0
21.8182 -5.26179 -44.1033 255 0 0
21.8182 -5.26179 -44.0267 255 0 0
21.8182 -5.26179 -43.95 255 0 0
21.8182 -5.26179 -43.8733 255 0 0
21.8182 -5.26179 -43.7967 255 0 0
21.8182 -5.26179 -43.72 255 0 0
21.8182 -5.26179 -43.6433 255 0 0
21.8182 -5.26179 -43.5667 255 0 0
21.8182 -5.26179 -43.49 255 0 0
21.8182 -5.26179 -43.4133 255 0 0
21.8182 -5.26179 -43.3367 255 0 0
21.8182 -5.26179 -43.26 255 0 0
21.8182 -5.26179 -43.1833 255 0 0
21.8182 -5.26179 -43.1067 255 0 0
21.8182 -5.26179 -43.03 0 255 0
21.8182 -5.26179 -42.9533 255 0 0
21.8182 -5.26179 -42.8767 255 0 0
21.8182 -5.26179 -42.8 255 0 0
21.8182 -5.26179 -42.7233 255 0 0
21.8182 -5.26179 -42.6467 255 0 0
21.8182 -5.26179 -42.57 255 0 0
21.8182 -5.26179 -42.4933 255 0 0
21.8182 -5.26179 -42.4167 255 0 0
21.8182 -5.26179 -42.34 255 0 0
21.8182 -5.26179 -42.2633 255 0 0
21.8182 -5.26179 -42.1867 255 0 0
21.8182 -5.26179 -42.11 255 0 0
21.8182 -5.26179 -42.0333 255 0 0
21.8182 -5.26179 -41.9567 255 0 0
21.8182 -5.26179 -41.88 255 0 0
22.6539 -2.68967 -44.18 255 0 0
22.6539 -2.68967 -44.1033 255 0 0
22.6539 -2.68967 -44.0267 255 0 0
22.6539 -2.68967 -43.95 255 0 0
22.6539 -2.68967 -43.8733 255 0 0
22.6539 -2.68967 -43.7967 255 0 0
22.6539 -2.68967 -43.72 255 0 0
22.6539 -2.68967 -43.6433 255 0 0
22.6539 -2.68967 -43.5667 255 0 0
22.6539 -2.68967 -43.49 255 0 0
22.6539 -2.68967 -43.4133 255 0 0
22.6539 -2.68967 -43.3367 255 0 0
22.6539 -2.68967 -43.26 255 0 0
22.6539 -2.68967 -43.1833 255 0 0
22.6539 -2.68967 -43.1067 255 0 0
22.6539 -2.68967 -43.03 0 255 0
22.6539 -2.68967 -42.9533 255 0 0
22.6539 -2.68967 -42.8767 255 0 0
22.6539 -2.68967 -42.8 255 0 0
22.6539 -2.68967 -42.7233 255 0 0
22.6539 -2.68967 -42.6467 255 0 0
22.6539 -2.68967 -42.57 255 0 0
22.6539 -2.68967 -42.4933 255 0 0
22.6539 -2.68967 -42.4167 255 0 0
22.6539 -2.68967 -42.34 255 0 0
22.6539 -2.68967 -42.2633 255 0 0
22.6539 -2.68967 -42.1867 255 0 0
22.6539 -2.68967 -42.11 255 0 0
22.6539 -2.68967 -42.0333 255 0 0
22.6539 -2.68967 -41.9567 255 0 0
22.6539 -2.68967 -41.88 255 0 0
22.9366 2.11872e-12 -44.18 255 0 0
22.9366 2.11872e-12 -44.1033 255 0 0
22.9366 2.11872e-12 -44.0267 255 0 0
22.9366 2.11872e-12 -43.95 255 0 0
22.9366 2.11872e-12 -43.8733 255 0 0
22.9366 2.11872e-12 -43.7967 255 0 0
22.9366 2.11872e-12 -43.72 255 0 0
22.9366 2.11872e-12 -43.6433 255 0 0
22.9366 2.11872e-12 -43.5667 255 0 0
22.9366 2.11872e-12 -43.49 255 0 0
22.9366 2.11872e-12 -43.4133 255 0 0
22.9366 2.11872e-12 -43.3367 255 0 0
22.9366 2.11872e-12 -43.26 255 0 0
22.9366 2.11872e-12 -43.1833 255 0 0
22.9366 2.11872e-12 -43.1067 255 0 0
22.9366 2.11872e-12 -43.03 0 255 0
22.9366 2.11872e-12 -42.9533 255 0 0
22.9366 2.11872e-12 -42.8767 255 0 0
22.9366 2.11872e-12 -42.8 255 0 0
22.9366 2.11872e-12 -42.7233 255 0 0
22.9366 2.11872e-12 -42.6467 255 0 0
22.9366 2.11872e-12 -42.57 255 0 0
22.9366 2.11872e-12 -42.4933 255 0 0
22.9366 2.11872e-12 -42.4167 255 0 0
22.9366 2.11872e-12 -42.34 255 0 0
22.9366 2.11872e-12 -42.2633 255 0 0
22.9366 2.11872e-12 -42.1867 255 0 0
22.9366 2.11872e-12 -42.11 255 0 0
22.9366 2.11872e-12 -42.0333 255 0 0
22.9366 2.11872e-12 -41.9567 255 0 0
22.9366 2.11872e-12 -41.88 255 0 0
22.6539 2.68967 -44.18 255 0 0
22.6539 2.68967 -44.1033 255 0 0
22.6539 2.68967 -44.0267 255 0 0
22.6539 2.68967 -43.95 255 0 0
22.6539 2.68967 -43.8733 255 0 0
22.6539 2.68967 -43.7967 255 0 0
22.6539 2.68967 -43.72 255 0 0
22.6539 2.68967 -43.6433 255 0 0
22.6539 2.68967 -43.5667 255 0 0
22.6539 2.68967 -43.49 255 0 0
22.6539 2.68967 -43.4133 255 0 0
22.6539 2.68967 -43.3367 255 0 0
22.6539 2.68967 -43.26 255 0 0
22.6539 2.68967 -43.1833 255 0 0
22.6539 2.68967 -43.1067 255 0 0
22.6539 2.68967 -43.03 0 255 0
22.6539 2.68967 -42.9533 255 0 0
22.6539 2.68967 -42.8767 255 0 0
22.6539 2.68967 -42.8 255 0 0
22.6539 2.68967 -42.7233 255 0 0
22.6539 2.68967 -42.6467 255 0 0
22.6539 2.68967 -42.57 255 0 0
22.6539 2.68967 -42.4933 255 0 0
22.6539 2.68967 -42.4167 255 0 0
22.6539 2.68967 -42.34 255 0 0
22.6539 2.68967 -42.2633 255 0 0
22.6539 2.68967 -42.1867 255 0 0
22.6539 2.68967 -42.11 255 0 0
22.6539 2.68967 -42.0333 255 0 0
22.6539 2.68967 -41.9567 255 0 0
22.6539 2.68967 -41.88 255 0 0
21.8182 5.26179 -44.18 255 0 0
21.8182 5.26179 -44.1033 255 0 0
21.8182 5.26179 -44.0267 255 0 0
21.8182 5.26179 -43.95 255 0 0
21.8182 5.26179 -43.8733 255 0 0
21.8182 5.26179 -43.7967 255 0 0
21.8182 5.26179 -43.72 255 0 0
21.8182 5.26179 -43.6433 255 0 0
21.8182 5.26179 -43.5667 255 0 0
21.8182 5.26179 -43.49 255 0 0
21.8182 5.26179 -43.4133 255 0 0
21.8182 5.26179 -43.3367 255 0 0
21.8182 5.26179 -43.26 255 0 0
21.8182 5.26179 -43.1833 255 0 0
21.8182 5.26179 -43.1067 255 0 0
21.8182 5.26179 -43.03 0 255 0
21.8182 5.26179 -42.9533 255 0 0
21.8182 5.26179 -42.8767 255 0 0
21.8182 5.26179 -42.8 255 0 0
21.8182 5.26179 -42.7233 255 0 0
21.8182 5.26179 -42.6467 255 0 0
21.8182 5.26179 -42.57 255 0 0
21.8182 5.26179 -42.4933 255 0 0
21.8182 5.26179 -42.4167 255 0 0
21.8182 5.26179 -42.34 255 0 0
21.8182 5.26179 -42.2633 255 0 0
21.8182 5.26179 -42.1867 255 0 0
21.8182 5.26179 -42.11 255 0 0
21.8182 5.26179 -42.0333 255 0 0
21.8182 5.26179 -41.9567 255 0 0
21.8182 5.26179 -41.88 255 0 0
20.4659 7.60394 -44.18 255 0 0
20.4659 7.60394 -44.1033 255 0 0
20.4659 7.60394 -44.0267 255 0 0
20.4659 7.60394 -43.95 255 0 0
20.4659 7.60394 -43.8733 255 0 0
20.4659 7.60394 -43.7967 255 0 0
20.4659 7.60394 -43.72 255 0 0
20.4659 7.60394 -43.6433 255 0 0
20.4659 7.60394 -43.5667 255 0 0
20.4659 7.60394 -43.49 255 0 0
20.4659 7.60394 -43.4133 255 0 0
20.4659 7.60394 -43.3367 255 0 0
20.4659 7.60394 -43.26 255 0 0
20.4659 7.60394 -43.1833 255 0 0
20.4659 7.60394 -43.1067 255 0 0
20.4659 7.60394 -43.03 0 255 0
20.4659 7.60394 -42.9533 255 0 0
20.4659 7.60394 -42.8767 255 0 0
20.4659 7.60394 -42.8 255 0 0
20.4659 7.60394 -42.7233 255 0 0
20.4659 7.60394 -42.6467 255 0 0
20.4659 7.60394 -42.57 255 0 0
20.4659 7.60394 -42.4933 255 0 0
20.4659 7.60394 -42.4167 255 0 0
20.4659 7.60394 -42.34 255 0 0
20.4659 7.60394 -42.2633 255 0 0
20.4659 7.60394 -42.1867 255 0 0
20.4659 7.60394 -42.11 255 0 0
20.4659 7.60394 -42.0333 255 0 0
20.4659 7.60394 -41.9567 255 0 0
20.4659 7.60394 -41.88 255 0 0
18.6563 9.61377 -44.18 255 0 0
18.6563 9.61377 -44.1033 255 0 0
18.6563 9.61377 -44.0267 255 0 0
18.6563 9.61377 -43.95 255 0 0
18.6563 9.61377 -43.8733 255 0 0
18.6563 9.61377 -43.7967 255 0 0
18.6563 9.61377 -43.72 255 0 0
18.6563 9.61377 -43.6433 255 0 0
18.6563 9.61377 -43.5667 255 0 0
18.6563 9.61377 -43.49 255 0 0
18.6563 9.61377 -43.4133 255 0 0
18.6563 9.61377 -43.3367 255 0 0
18.6563 9.61377 -43.26 255 0 0
18.6563 9.61377 -43.1833 255 0 0
18.6563 9.61377 -43.1067 255 0 0
18.6563 9.61377 -43.03 0 255 0
18.6563 9.61377 -42.9533 255 0 0
18.6563 9.61377 -42.8767 255 0 0
18.6563 9.61377 -42.8 255 0 0
18.6563 9.61377 -42.7233 255 0 0
18.6563 9.61377 -42.6467 255 0 0
18.6563 9.61377 -42.57 255 0 0
18.6563 9.61377 -42.4933 255 0 0
18.6563 9.61377 -42.4167 255 0 0
18.6563 9.61377 -42.34 255 0 0
18.6563 9.61377 -42.2633 255 0 0
18.6563 9.61377 -42.1867 255 0 0
18.6563 9.61377 -42.11 255 0 0
18.6563 9.61377 -42.0333 255 0 0
18.6563 9.61377 -41.9567 255 0 0
18.6563 9.61377 -41.88 255 0 0
16.4683 11.2034 -44.18 255 0 0
16.4683 11.2034 -44.1033 255 0 0
16.4683 11.2034 -44.0267 255 0 0
16.4683 11.2034 -43.95 255 0 0
16.4683 11.2034 -43.8733 255 0 0
16.4683 11.2034 -43.7967 255 0 0
16.4683 11.2034 -43.72 255 0 0
16.4683 11.2034 -43.6433 255 0 0
16.4683 11.2034 -43.5667 255 0 0
16.4683 11.2034 -43.49 255 0 0
16.4683 11.2034 -43.4133 255 0 0
16.4683 11.2034 -43.3367 255 0 0
16.4683 11.2034 -43.26 255 0 0
16.4683 11.2034 -43.1833 255 0 0
16.4683 11.2034 -43.1067 255 0 0
16.4683 11.2034 -43.03 0 255 0
16.4683 11.2034 -42.9533 255 0 0
16.4683 11.2034 -42.8767 255 0 0
16.4683 11.2034 -42.8 255 0 0
16.4683 11.2034 -42.7233 255 0 0
16.4683 11.2034 -42.6467 255 0 0
16.4683 11.2034 -42.57 255 0 0
16.4683 11.2034 -42.4933 255 0 0
16.4683 11.2034 -42.4167 255 0 0
16.4683 11.2034 -42.34 255 0 0
16.4683 11.2034 -42.2633 255 0 0
16.4683 11.2034 -42.1867 255 0 0
16.4683 11.2034 -42.11 255 0 0
16.4683 11.2034 -42.0333 255 0 0
16.4683 11.2034 -41.9567 255 0 0
16.4683 11.2034 -41.88 255 0 0
13.9976 12.3034 -44.18 255 0 0
13.9976 12.3034 -44.1033 255 0 0
13.9976 12.3034 -44.0267 255 0 0
13.9976 12.3034 -43.95 255 0 0
13.9976 12.3034 -43.8733 255 0 0
13.9976 12.3034 -43.7967 255 0 0
13.9976 12.3034 -43.72 255 0 0
13.9976 12.3034 -43.6433 255 0 0
13.9976 12.3034 -43.5667 255 0 0
13.9976 12.3034 -43.49 255 0 0
13.9976 12.3034 -43.4133 255 0 0
13.9976 12.3034 -43.3367 255 0 0
13.9976 12.3034 -43.26 255 0 0
13.9976 12.3034 -43.1833 255 0 0
13.9976 12.3034 -43.1067 255 0 0
13.9976 12.3034 -43.03 0 255 0
13.9976 12.3034 -42.9533 255 0 0
13.9976 12.3034 -42.8767 255 0 0
13.9976 12.3034 -42.8 255 0 0
13.9976 12.3034 -42.7233 255 0 0
13.9976 12.3034 -42.6467 255 0 0
13.9976 12.3034 -42.57 255 0 0
13.9976 12.3034 -42.4933 255 0 0
13.9976 12.3034 -42.4167 255 0 0
13.9976 12.3034 -42.34 255 0 0
13.9976 12.3034 -42.2633 255 0 0
13.9976 12.3034 -42.1867 255 0 0
13.9976 12.3034 -42.11 255 0 0
13.9976 12.3034 -42.0333 255 0 0
13.9976 12.3034 -41.9567 255 0 0
13.9976 12.3034 -41.88 255 0 0
11.3522 12.8657 -44.18 255 0 0
11.3522 12.8657 -44.1033 255 0 0
11.3522 12.8657 -44.0267 255 0 0
11.3522 12.8657 -43.95 255 0 0
11.3522 12.8657 -43.8733 255 0 0
11.3522 12.8657 -43.7967 255 0 0
11.3522 12.8657 -43.72 255 0 0
11.3522 12.8657 -43.6433 255 0 0
11.3522 12.8657 -43.5667 255 0 0
11.3522 12.8657 -43.49 255 0 0
11.3522 12.8657 -43.4133 255 0 0
11.3522 12.8657 -43.3367 255 0 0
11.3522 12.8657 -43.26 255 0 0
11.3522 12.8657 -43.1833 255 0 0
11.3522 12.8657 -43.1067 255 0 0
11.3522 12.8657 -43.03 0 255 0
11.3522 12.8657 -42.9533 255 0 0
11.3522 12.8657 -42.8767 255 0 0
11.3522 12.8657 -42.8 255 0 0
11.3522 12.8657 -42.7233 255 0 0
11.3522 12.8657 -42.6467 255 0 0
11.3522 12.8657 -42.57 255 0 0
11.3522 12.8657 -42.4933 255 0 0
11.3522 12.8657 -42.4167 255 0 0
11.3522 12.8657 -42.34 255 0 0
11.3522 12.8657 -42.2633 255 0 0
11.3522 12.8657 -42.1867 255 0 0
11.3522 12.8657 -42.11 255 0 0
11.3522 12.8657 -42.0333 255 0 0
11.3522 12.8657 -41.9567 255 0 0
11.3522 12.8657 -41.88 255 0 0
8.64776 12.8657 -44.18 255 0 0
8.64776 12.8657 -44.1033 255 0 0
8.64776 12.8657 -44.0267 255 0 0
8.64776 12.8657 -43.95 255 0 0
8.64776 12.8657 -43.8733 255 0 0
8.64776 12.8657 -43.7967 255 0 0
8.64776 12.8657 -43.72 255 0 0
8.64776 12.8657 -43.6433 255 0 0
8.64776 12.8657 -43.5667 255 0 0
8.64776 12.8657 -43.49 255 0 0
8.64776 12.8657 -43.4133 255 0 0
8.64776 12.8657 -43.3367 255 0 0
8.64776 12.8657 -43.26 255 0 0
8.64776 12.8657 -43.1833 255 0 0
8.64776 12.8657 -43.1067 255 0 0
8.64776 12.8657 -43.03 0 255 0
8.64776 12.8657 -42.9533 255 0 0
8.64776 12.8657 -42.8767 255 0 0
8.64776 12.8657 -42.8 255 0 0
8.64776 12.8657 -42.7233 255 0 0
8.64776 12.8657 -42.6467 255 0 0
8.64776 12.8657 -42.57 255 0 0
8.64776 12.8657 -42.4933 255 0 0
8.64776 12.8657 -42.4167 255 0 0
8.64776 12.8657 -42.34 255 0 0
8.64776 12.8657 -42.2633 255 0 0
8.64776 12.8657 -42.1867 255 0 0
8.64776 12.8657 -42.11 255 0 0
8.64776 12.8657 -42.0333 255 0 0
8.64776 12.8657 -41.9567 255 0 0
8.64776 12.8657 -41.88 255 0 0
6.00237 12.3034 -44.18 255 0 0
6.00237 12.3034 -44.1033 255 0 0
6.00237 12.3034 -44.0267 255 0 0
6.00237 12.3034 -43.95 255 0 0
6.00237 12.3034 -43.8733 255 0 0
6.00237 12.3034 -43.7967 255 0 0
6.00237 12.3034 -43.72 255 0 0
6.00237 12.3034 -43.6433 255 0 0
6.00237 12.3034 -43.5667 255 0 0
6.00237 12.3034 -43.49 255 0 0
6.00237 12.3034 -43.4133 255 0 0
6.00237 12.3034 -43.3367 255 0 0
6.00237 12.3034 -43.26 255 0 0
6.00237 12.3034 -43.1833 255 0 0
6.00237 12.3034 -43.1067 255 0 0
6.00237 12.3034 -43.03 0 255 0
6.00237 12.3034 -42.9533 255 0 0
6.00237 12.3034 -42.8767 255 0 0
6.00237 12.3034 -42.8 255 0 0
6.00237 12.3034 -42.7233 255 0 0
6.00237 12.3034 -42.6467 255 0 0
6.00237 12.3034 -42.57 255 0 0
6.00237 12.3034 -42.4933 255 0 0
6.00237 12.3034 -42.4167 255 0 0
6.00237 12.3034 -42.34 255 0 0
6.00237 12.3034 -42.2633 255 0 0
6.00237 12.3034 -42.1867 255 0 0
6.00237 12.3034 -42.11 255 0 0
6.00237 12.3034 -42.0333 255 0 0
6.00237 12.3034 -41.9567 255 0 0
6.00237 12.3034 -41.88 255 0 0
3.5317 11.2034 -44.18 255 0 0
3.5317 11.2034 -44.1033 255 0 0
3.5317 11.2034 -44.0267 255 0 0
3.5317 11.2034 -43.95 255 0 0
3.5317 11.2034 -43.8733 255 0 0
3.5317 11.2034 -43.7967 255 0 0
3.5317 11.2034 -43.72 255 0 0
3.5317 11.2034 -43.6433 255 0 0
3.5317 11.2034 -43.5667 255 0 0
3.5317 11.2034 -43.49 255 0 0
3.5317 11.2034 -43.4133 255 0 0
3.5317 11.2034 -43.3367 255 0 0
3.5317 11.2034 -43.26 255 0 0
3.5317 11.2034 -43.1833 255 0 0
3.5317 11.2034 -43.1067 255 0 0
3.5317 11.2034 -43.03 0 255 0
3.5317 11.2034 -42.9533 255 0 0
3.5317 11.2034 -42.8767 255 0 0
3.5317 11.2034 -42.8 255 0 0
3.5317 11.2034 -42.7233 255 0 0
3.5317 11.2034 -42.6467 255 0 0
3.5317 11.2034 -42.57 255 0 0
3.5317 11.2034 -42.4933 255 0 0
3.5317 11.2034 -42.4167 255 0 0
3.5317 11.2034 -42.34 255 0 0
3.5317 11.2034 -42.2633 255 0 0
3.5317 11.2034 -42.1867 255 0 0
3.5317 11.2034 -42.11 255 0 0
3.5317 11.2034 -42.0333 255 0 0
3.5317 11.2034 -41.9567 255 0 0
3.5317 11.2034 -41.88 255 0 0
1.34373 9.61377 -44.18 255 0 0
1.34373 9.61377 -44.1033 255 0 0
1.34373 9.61377 -44.0267 255 0 0
1.34373 9.61377 -43.95 255 0 0
1.34373 9.61377 -43.8733 255 0 0
1.34373 9.61377 -43.7967 255 0 0
1.34373 9.61377 -43.72 255 0 0
1.34373 9.61377 -43.6433 255 0 0
1.34373 9.61377 -43.5667 255 0 0
1.34373 9.61377 -43.49 255 0 0
1.34373 9.61377 -43.4133 255 0 0
1.34373 9.61377 -43.3367 255 0 0
1.34373 9.61377 -43.26 255 0 0
1.34373 9.61377 -43.1833 255 0 0
1.34373 9.61377 -43.1067 255 0 0
1.34373 9.61377 -43.03 0 255 0
1.34373 9.61377 -42.9533 255 0 0
1.34373 9.61377 -42.8767 255 0 0
1.34373 9.61377 -42.8 255 0 0
1.34373 9.61377 -42.7233 255 0 0
1.34373 9.61377 -42.6467 255 0 0
1.34373 9.61377 -42.57 255 0 0
1.34373 9.61377 -42.4933 255 0 0
1.34373 9.61377 -42.4167 255 0 0
1.34373 9.61377 -42.34 255 0 0
1.34373 9.61377 -42.2633 255 0 0
1.34373 9.61377 -42.1867 255 0 0
1.34373 9.61377 -42.11 255 0 0
1.34373 9.61377 -42.0333 255 0 0
1.34373 9.61377 -41.9567 255 0 0
1.34373 9.61377 -41.88 255 0 0
-0.465928 7.60394 -44.18 255 0 0
-0.465928 7.60394 -44.1033 255 0 0
-0.465928 7.60394 -44.0267 255 0 0
-0.465928 7.60394 -43.95 255 0 0
-0.465928 7.60394 -43.8733 255 0 0
-0.465928 7.60394 -43.7967 255 0 0
-0.465928 7.60394 -43.72 255 0 0
-0.465928 7.60394 -43.6433 255 0 0
-0.465928 7.60394 -43.5667 255 0 0
-0.465928 7.60394 -43.49 255 0 0
-0.465928 7.60394 -43.4133 255 0 0
-0.465928 7.60394 -43.3367 255 0 0
-0.465928 7.60394 -43.26 255 0 0
-0.465928 7.60394 -43.1833 255 0 0
-0.465928 7.60394 -43.1067 255 0 0
-0.465928 7.60394 -43.03 0 255 0
-0.465928 7.60394 -42.9533 255 0 0
-0.465928 7.60394 -42.8767 255 0 0
-0.465928 7.60394 -42.8 255 0 0
-0.465928 7.60394 -42.7233 255 0 0
-0.465928 7.60394 -42.6467 255 0 0
-0.465928 7.60394 -42.57 255 0 0
-0.465928 7.60394 -42.4933 255 0 0
-0.465928 7.60394 -42.4167 255 0 0
-0.465928 7.60394 -42.34 255 0 0
-0.465928 7.60394 -42.2633 255 0 0
-0.465928 7.60394 -42.1867 255 0 0
-0.465928 7.60394 -42.11 255 0 0
-0.465928 7.60394 -42.0333 255 0 0
-0.465928 7.60394 -41.9567 255 0 0
-0.465928 7.60394 -41.88 255 0 0
-1.81817 5.26179 -44.18 255 0 0
-1.81817 5.26179 -44.1033 255 0 0
-1.81817 5.26179 -44.0267 255 0 0
-1.81817 5.26179 -43.95 255 0 0
-1.81817 5.26179 -43.8733 255 0 0
-1.81817 5.26179 -43.7967 255 0 0
-1.81817 5.26179 -43.72 255 0 0
-1.81817 5.26179 -43.6433 255 0 0
-1.81817 5.26179 -43.5667 255 0 0
-1.81817 5.26179 -43.49 255 0 0
-1.81817 5.26179 -43.4133 255 0 0
-1.81817 5.26179 -43.3367 255 0 0
-1.81817 5.26179 -43.26 255 0 0
-1.81817 5.26179 -43.1833 255 0 0
-1.81817 5.26179 -43.1067 255 0 0
-1.81817 5.26179 -43.03 0 255 0
-1.81817 5.26179 -42.9533 255 0 0
-1.81817 5.26179 -42.8767 255 0 0
-1.81817 5.26179 -42.8 255 0 0
-1.81817 5.26179 -42.7233 255 0 0
-1.81817 5.26179 -42.6467 255 0 0
-1.81817 5.26179 -42.57 255 0 0
-1.81817 5.26179 -42.4933 255 0 0
-1.81817 5.26179 -42.4167 255 0 0
-1.81817 5.26179 -42.34 255 0 0
-1.81817 5.26179 -42.2633 255 0 0
-1.81817 5.26179 -42.1867 255 0 0
-1.81817 5.26179 -42.11 255 0 0
-1.81817 5.26179 -42.0333 255 0 0
-1.81817 5.26179 -41.9567 255 0 0
-1.81817 5.26179 -41.88 255 0 0
-2.6539 2.68967 -44.18 255 0 0
-2.6539 2.68967 -44.1033 255 0 0
-2.6539 2.68967 -44.0267 255 0 0
-2.6539 2.68967 -43.95 255 0 0
-2.6539 2.68967 -43.8733 255 0 0
-2.6539 2.68967 -43.7967 255 0 0
-2.6539 2.68967 -43.72 255 0 0
-2.6539 2.68967 -43.6433 255 0 0
-2.6539 2.68967 -43.5667 255 0 0
-2.6539 2.68967 -43.49 255 0 0
-2.6539 2.68967 -43.4133 255 0 0
-2.6539 2.68967 -43.3367 255 0 0
-2.6539 2.68967 -43.26 255 0 0
-2.6539 2.68967 -43.1833 255 0 0
-2.6539 2.68967 -43.1067 255 0 0
-2.6539 2.68967 -43.03 0 255 0
-2.6539 2.68967 -42.9533 255 0 0
-2.6539 2.68967 -42.8767 255 0 0
-2.6539 2.68967 -42.8 255 0 0
-2.6539 2.68967 -42.7233 255 0 0
-2.6539 2.68967 -42.6467 255 0 0
-2.6539 2.68967 -42.57 255 0 0
-2.6539 2.68967 -42.4933 255 0 0
-2.6539 2.68967 -42.4167 255 0 0
-2.6539 2.68967 -42.34 255 0 0
-2.6539 2.68967 -42.2633 255 0 0
-2.6539 2.68967 -42.1867 255 0 0
-2.6539 2.68967 -42.11 255 0 0
-2.6539 2.68967 -42.0333 255 0 0
-2.6539 2.68967 -41.9567 255 0 0
-2.6539 2.68967 -41.88 255 0 0
-2.9366 2.12664e-12 -44.18 255 0 0
-2.9366 2.12664e-12 -44.1033 255 0 0
-2.9366 2.12664e-12 -44.0267 255 0 0
-2.9366 2.12664e-12 -43.95 255 0 0
-2.9366 2.12664e-12 -43.8733 255 0 0
-2.9366 2.12664e-12 -43.7967 255 0 0
-2.9366 2.12664e-12 -43.72 255 0 0
-2.9366 2.12664e-12 -43.6433 255 0 0
-2.9366 2.12664e-12 -43.5667 255 0 0
-2.9366 2.12664e-12 -43.49 255 0 0
-2.9366 2.12664e-12 -43.4133 255 0 0
-2.9366 2.12664e-12 -43.3367 255 0 0
-2.9366 2.12664e-12 -43.26 255 0 0
-2.9366 2.12664e-12 -43.1833 255 0 0
-2.9366 2.12664e-12 -43.1067 255 0 0
-2.9366 2.12664e-12 -43.03 0 255 0
-2.9366 2.12664e-12 -42.9533 255 0 0
-2.9366 2.12664e-12 -42.8767 255 0 0
-2.9366 2.12664e-12 -42.8 255 0 0
-2.9366 2.12664e-12 -42.7233 255 0 0
-2.9366 2.12664e-12 -42.6467 255 0 0
-2.9366 2.12664e-12 -42.57 255 0 0
-2.9366 2.12664e-12 -42.4933 255 0 0
-2.9366 2.12664e-12 -42.4167 255 0 0
-2.9366 2.12664e-12 -42.34 255 0 0
-2.9366 2.12664e-12 -42.2633 255 0 0
-2.9366 2.12664e-12 -42.1867 255 0 0
-2.9366 2.12664e-12 -42.11 255 0 0
-2.9366 2.12664e-12 -42.0333 255 0 0
-2.9366 2.12664e-12 -41.9567 255 0 0
-2.9366 2.12664e-12 -41.88 255 0 0
